# .PCD v0.7 - Point Cloud Data file format
VERSION 0.7
FIELDS x y z intensity
SIZE 4 4 4 4
TYPE F F F F
COUNT 1 1 1 1
WIDTH 1438
HEIGHT 1
VIEWPOINT 0 0 0 1 0 0 0
POINTS 1438
DATA ascii
3.1724403 -5.2335534 -0.88735843 806
3.2580786 -4.9555907 -0.91599792 789
3.3165386 -4.6680093 -0.94078541 821
3.4048231 -4.4367509 -0.97506541 884
2.9637444 -4.8950491 -1.0450866 853
2.9785678 -4.5373478 -1.043236 844
3.1578887 -4.4463539 -1.1026212 748
3.2491734 -4.2339268 -1.1334348 833
2.6526444 -4.3898649 -1.134272 918
2.799119 -4.2688584 -1.1785187 947
2.9737594 -4.1886454 -1.2380087 845
3.0883036 -4.0243011 -1.2770065 897
2.5676224 -4.2575512 -1.2960001 759
2.7063129 -4.1351871 -1.3380965 994
2.8138242 -3.9663036 -1.3687711 935
2.8916469 -3.7666807 -1.3903967 893
10.25645 -17.075294 6.0556054 24
9.3546886 -14.31096 5.0060458 36
10.220669 -14.428993 4.9835467 36
0 -0 0 9
11.530024 -19.172834 5.8818979 15
9.3027773 -14.236971 4.2876072 35
10.218599 -14.442098 4.280057 22
11.119707 -14.543151 4.2500997 22
12.817155 -21.313154 5.5591626 19
9.2883263 -14.225696 3.6205301 43
10.241599 -14.485324 3.6060617 41
11.240253 -14.7221 3.5836401 27
12.796041 -21.269638 4.5960217 16
9.3010225 -14.245141 2.9814374 51
10.200921 -14.443829 2.9242051 45
11.160962 -14.639424 2.8695583 33
4.9274268 -8.1903915 1.4114543 513
5.1069994 -7.8246956 1.2865928 722
5.5523391 -7.8646569 1.2349694 571
6.0481715 -7.9446621 1.1853241 530
4.8215632 -8.0144253 1.0342324 567
4.9151287 -7.5335932 0.90894026 545
5.3723965 -7.6182394 0.8532927 486
5.895401 -7.7495995 0.80053926 448
4.7900157 -7.9651332 0.68906897 530
4.9097834 -7.5311437 0.58137161 579
5.3546543 -7.5987105 0.51320863 494
5.8859367 -7.7399616 0.44665474 427
6.7135787 -11.168166 0.49148002 104
4.9154387 -7.5455742 0.25468954 520
5.3373251 -7.5797367 0.17476274 491
5.8793559 -7.7397151 0.091607489 476
0 -0 0 5
4.9131999 -7.5450163 -0.072287977 609
5.3306146 -7.5786333 -0.16173145 490
5.8707018 -7.7311239 -0.26098153 512
6.6788025 -11.132304 -0.45334449 48
4.9081683 -7.5488091 -0.39942774 545
3.4802125 -4.9478822 -0.3254979 685
3.6832418 -4.8522172 -0.38539982 710
0 -0 -0 0
4.9134088 -7.5626445 -0.72878802 572
3.6346366 -5.1731839 -0.56981856 615
3.7217839 -4.9065471 -0.61468995 779
0 -0 -0 9
3.3632157 -5.1805682 -0.72557533 665
3.4873693 -4.9672632 -0.77102607 774
3.5061634 -4.6239634 -0.79387337 752
3.1422992 -5.2563181 -0.88793236 771
3.2437453 -5.0003614 -0.92057711 850
3.2985988 -4.7036214 -0.94386572 812
3.3870549 -4.4701223 -0.9778136 891
2.9255838 -4.8996282 -1.042212 805
2.9538743 -4.5604839 -1.0443686 840
3.1153555 -4.4439764 -1.0972705 718
3.2249055 -4.2561226 -1.134058 855
2.6256588 -4.4060588 -1.134272 920
2.7691681 -4.2802262 -1.176944 962
2.9346123 -4.1877055 -1.2323856 872
3.0606246 -4.0393105 -1.2757858 865
2.541945 -4.2740579 -1.2962525 828
2.6808889 -4.1517148 -1.3380965 1041
2.790539 -3.9850714 -1.369313 932
2.8707993 -3.7874117 -1.3915206 839
0 -0 0 6
9.2438145 -14.332602 4.9936814 28
10.155658 -14.525354 4.9952116 42
11.200038 -14.814479 5.0458307 21
0 -0 0 6
9.2247028 -14.308453 4.292007 33
10.121444 -14.492572 4.2765298 35
11.19929 -14.835008 4.3152285 42
12.713518 -21.437567 5.5711608 22
9.2008638 -14.28242 3.6205301 45
10.053261 -14.405652 3.5708039 45
11.139071 -14.77668 3.5802212 35
0 -0 0 6
9.2134409 -14.301943 2.9814374 67
10.056812 -14.426831 2.908216 51
11.085187 -14.726578 2.8732548 35
4.9179645 -8.2893867 1.4232869 460
5.0519195 -7.845057 1.2848196 729
5.4552102 -7.8285923 1.224027 603
5.9563518 -7.9244704 1.1768364 561
4.7956257 -8.0831804 1.039288 544
4.9011226 -7.6138058 0.91497242 560
5.2777629 -7.5824046 0.84563583 495
5.8208051 -7.7497668 0.79685205 514
4.7710652 -8.044982 0.69343114 560
4.8802156 -7.5871453 0.58337206 579
5.2554765 -7.5560102 0.50813717 474
5.8017473 -7.7272024 0.4438557 476
6.547596 -11.044967 0.48428118 95
4.887423 -7.6041827 0.25565073 526
5.2627563 -7.572114 0.17383917 479
5.7819571 -7.7092471 0.090825245 507
0 -0 0 5
4.8911352 -7.6128793 -0.072649255 587
5.2378273 -7.544672 -0.16031782 435
5.77878 -7.7078137 -0.25899279 553
0 -0 -0 7
4.8844128 -7.6140995 -0.40128905 560
3.4998999 -5.0413265 -0.33022615 438
3.6545973 -4.8763232 -0.38552612 751
0 -0 -0 11
4.8927321 -7.6329298 -0.73265427 583
3.6289337 -5.233036 -0.57394767 701
3.6892221 -4.9261055 -0.61429268 700
6.4800649 -10.97467 -1.3755465 28
3.3570774 -5.2412505 -0.73117554 434
3.4692554 -5.0065064 -0.77379864 811
3.4801002 -4.648562 -0.79441547 726
3.101444 -5.2610068 -0.88549304 786
3.2220595 -5.0343218 -0.92317206 872
3.27473 -4.7310748 -0.94532478 762
3.3631039 -4.4955535 -0.97884417 861
2.8914721 -4.9107056 -1.0407747 790
2.9300666 -4.5851426 -1.0458785 790
3.0785484 -4.449306 -1.0939018 761
3.2004876 -4.2781801 -1.1346812 820
2.5931327 -4.4128265 -1.1318967 914
2.7328925 -4.2815318 -1.1726699 940
2.9033318 -4.197638 -1.2300427 896
3.0317159 -4.0525784 -1.2740769 815
2.5225253 -4.3012605 -1.2997838 857
2.6491404 -4.1583176 -1.3349602 1003
2.7693183 -4.0068703 -1.3709387 932
2.8492312 -3.8072605 -1.3923637 848
9.1736937 -15.70617 5.5297146 13
9.133544 -14.354235 4.9815989 32
9.9586468 -14.431334 4.9417706 27
10.985398 -14.717427 4.9897223 32
0 -0 0 12
9.0149593 -14.173329 4.2348027 37
9.9870958 -14.488783 4.2572484 38
11.017242 -14.781607 4.2799506 26
7.8237443 -13.378849 3.4643328 18
8.785697 -13.823537 3.490474 54
9.902977 -14.377484 3.5486929 40
10.976093 -14.747874 3.5568566 36
7.8633337 -13.441164 2.8833463 31
8.7234449 -13.725588 2.8500762 110
9.7281952 -14.139573 2.838223 61
10.953362 -14.738805 2.8624735 28
4.8874907 -8.3544159 1.4292765 421
5.0036879 -7.8759074 1.2848196 747
5.359858 -7.7932682 1.213339 602
5.8419299 -7.8723526 1.1637512 548
4.7755499 -8.1630707 1.0457727 543
4.8799148 -7.6840487 0.91979808 578
5.1832085 -7.5448766 0.8378877 500
5.7321825 -7.7300987 0.79119825 489
4.7457767 -8.115427 0.69697994 524
4.8758106 -7.6835113 0.58847016 546
5.1847157 -7.5527182 0.50576681 487
5.7054453 -7.6968503 0.44009304 499
6.4736505 -11.074581 0.4838289 98
4.8727903 -7.68468 0.25734699 583
5.1873522 -7.5622149 0.17287791 533
5.7041974 -7.7035947 0.090344585 515
6.4592457 -11.058797 0.02011718 220
4.8652096 -7.6756864 -0.072962359 572
5.15131 -7.5181074 -0.1590787 411
5.6820154 -7.6764383 -0.25676218 483
6.4575891 -11.069264 -0.44751629 365
4.8707247 -7.6962647 -0.4040367 554
5.128284 -7.4845023 -0.48819312 407
3.6305439 -4.9066782 -0.38615748 692
6.4593005 -11.076639 -0.91462386 389
4.8628526 -7.689765 -0.73523176 613
3.6198194 -5.2889018 -0.57762796 643
3.692055 -4.9934549 -0.61985457 740
6.4291115 -11.042579 -1.3790874 278
3.4203508 -5.412878 -0.75217628 546
3.4261508 -5.0096846 -0.77102607 766
3.4644675 -4.6873569 -0.79739749 692
3.0715914 -5.2842159 -0.88621044 735
3.2000785 -5.068203 -0.92576689 863
3.2589979 -4.7706342 -0.94921571 733
3.3465765 -4.5311608 -0.98210752 859
2.8548653 -4.917295 -1.0384392 811
2.9196835 -4.6312795 -1.0522962 771
3.0406876 -4.4527326 -1.0901364 795
3.1788261 -4.3040323 -1.1363431 871
2.5655179 -4.4278097 -1.1316807 888
2.7060509 -4.2973957 -1.1724449 958
2.8703957 -4.2049356 -1.2269969 899
3.0021837 -4.0648642 -1.2721241 775
2.4980233 -4.3200078 -1.3007927 912
2.6210074 -4.1704078 -1.3336535 969
2.7522745 -4.0349197 -1.3747318 955
2.8201137 -3.8169525 -1.3895535 780
7.7636337 -13.481288 4.7295332 34
8.6151743 -13.724784 4.7447143 23
9.4895697 -13.933705 4.7513375 53
10.813023 -14.673464 4.9522295 33
7.7341599 -13.413861 4.0707726 38
8.6191149 -13.736385 4.0883708 27
9.4371386 -13.872326 4.0590234 75
10.716193 -14.563342 4.1976352 28
7.7424812 -13.428293 3.4647691 53
8.5988827 -13.714771 3.4496229 29
9.4702492 -13.931453 3.4241948 60
10.513927 -14.309377 3.4354773 65
7.7772732 -13.483197 2.882072 46
8.6155167 -13.741302 2.8423083 35
9.4788666 -13.959846 2.7904191 50
10.423185 -14.206655 2.7466497 86
4.8821063 -8.4639435 1.4428622 301
4.9621072 -7.9173732 1.2865928 709
5.2729459 -7.7685618 1.2044324 615
5.7383509 -7.8327508 1.1526703 577
4.7541766 -8.242156 1.0521474 615
4.8585577 -7.7551608 0.9247244 551
5.092669 -7.5114226 0.83068657 499
5.6228285 -7.6806874 0.78259474 502
4.7212968 -8.1884556 0.70075065 477
4.8449883 -7.7395053 0.59047067 557
5.0845127 -7.5050321 0.50047487 427
5.6020665 -7.6551294 0.43573385 500
6.348691 -11.015394 0.47953221 87
4.8377385 -7.7339258 0.25799721 593
5.0775175 -7.5003428 0.17074801 508
5.6084328 -7.6722546 0.089571767 490
6.3967586 -11.107755 0.02013446 213
4.8344555 -7.731678 -0.073211238 568
5.0518756 -7.4708891 -0.15742071 371
5.5787768 -7.6344824 -0.25420907 489
6.4154587 -11.153728 -0.44933105 169
4.8345199 -7.7438021 -0.40496734 537
5.0632453 -7.4877033 -0.48636627 463
3.592716 -4.918386 -0.38533667 607
6.6646614 -11.591664 -0.95375597 50
4.8208532 -7.7279153 -0.73603725 510
5.0478621 -7.4733834 -0.81280828 519
3.665453 -5.0216413 -0.6205498 747
6.8933177 -12.008754 -1.4944408 44
3.4364583 -5.5129895 -0.76314336 491
3.3986769 -5.0355458 -0.77178222 813
3.461921 -4.7445426 -0.8034969 680
3.0332053 -5.2926598 -0.88448858 720
3.1741455 -5.0961313 -0.9272933 848
3.2572448 -4.8314509 -0.9573217 806
3.3349619 -4.5738983 -0.98691672 933
2.8109562 -4.9108143 -1.0334086 763
2.8995092 -4.6624498 -1.0553162 695
3.0056403 -4.4599266 -1.0873621 818
3.1558149 -4.3281984 -1.1375896 823
2.5397542 -4.446012 -1.1323286 938
2.6765468 -4.3089528 -1.1710953 938
2.8423679 -4.2192435 -1.2260597 911
2.9634738 -4.0644026 -1.266265 714
2.4599676 -4.3150787 -1.294739 880
2.5933347 -4.1831298 -1.3326082 1012
2.7280023 -4.0525298 -1.3750026 969
2.7966402 -3.8341846 -1.3895535 775
0 -0 0 6
0 -0 0 11
9.4232235 -14.020428 4.7611032 25
10.366835 -14.250247 4.787837 45
7.6932888 -13.534214 4.0928936 16
8.6566362 -13.98607 4.1467972 18
9.4629021 -14.0954 4.1072273 22
10.296876 -14.174871 4.0673776 33
7.6932178 -13.534089 3.4798212 18
8.546978 -13.819678 3.4627533 35
9.3758554 -13.976279 3.4210079 19
10.366552 -14.291763 3.4159124 24
7.7016869 -13.543486 2.8848028 31
8.6413946 -13.972341 2.8790758 15
9.4556417 -14.111179 2.8090186 28
10.337558 -14.272743 2.7471118 27
4.8643117 -8.553936 1.4530879 46
4.9264569 -7.9687371 1.2900031 756
5.1915083 -7.7505007 1.1966709 629
5.6541018 -7.817925 1.1453614 623
4.7393813 -8.3342447 1.0601707 593
4.8417401 -7.8347611 0.9306559 560
5.0143647 -7.494524 0.82539958 513
5.527142 -7.6479983 0.77579385 518
4.705462 -8.2779589 0.705926 502
4.8844433 -7.9100347 0.601183 205
5.021719 -7.5111871 0.49882117 482
5.5187211 -7.6391544 0.43288893 477
6.2656784 -11.027208 0.47836381 120
4.7581744 -7.7115712 0.2562727 87
5.0114064 -7.5014281 0.17006949 547
5.5109282 -7.6367874 0.088761248 492
0 -0 0 6
4.7591019 -7.7160873 -0.072785728 29
4.9798555 -7.462657 -0.15660045 499
5.4949841 -7.6174941 -0.25251597 518
0 -0 -0 12
0 -0 -0 7
4.9739738 -7.4538426 -0.48217529 475
3.5449581 -4.9160533 -0.38344252 529
0 -0 -0 10
0 -0 -0 5
4.9720821 -7.4594641 -0.80796105 522
3.636317 -5.0464597 -0.62084782 607
0 -0 -0 7
3.4441819 -5.6016545 -0.77247697 550
3.3710151 -5.0612593 -0.77253836 821
3.4674881 -4.813931 -0.81162947 700
2.9962916 -5.3034167 -0.88319713 697
3.150059 -5.1273007 -0.92943031 864
3.2373767 -4.8661346 -0.96023989 805
3.3137403 -4.6038699 -0.98897779 882
2.774003 -4.9159756 -1.0308934 764
2.9098706 -4.7437716 -1.0696614 663
2.9738755 -4.4717555 -1.0857767 845
3.1229124 -4.3387475 -1.1353045 860
2.5095515 -4.4564071 -1.1310331 926
2.64853 -4.3228016 -1.1704204 917
2.8061996 -4.2212219 -1.221608 934
2.936213 -4.079361 -1.2652885 766
2.4329703 -4.329248 -1.2944868 974
2.5590582 -4.1849642 -1.3281652 971
2.6977587 -4.0611739 -1.3722932 980
2.77194 -3.8497148 -1.3889916 729
7.6564884 -13.680743 4.7661829 37
10.289888 -16.84845 5.7804871 28
9.4567165 -14.25846 4.8221397 35
10.287645 -14.325345 4.7917695 14
7.6569037 -13.664692 4.1180658 36
11.574907 -18.959951 5.6003637 26
9.3966351 -14.183989 4.1161628 39
10.265337 -14.315364 4.0895395 24
7.6610742 -13.672135 3.5031624 54
12.86977 -21.097521 5.2664533 20
9.4121714 -14.218219 3.4660263 42
10.364972 -14.475638 3.4445951 49
7.6795034 -13.699417 2.9079249 61
0 -0 0 10
9.3764973 -14.180453 2.8113027 58
10.325643 -14.442001 2.7674427 42
7.694808 -13.726719 2.3237429 96
4.9006782 -8.0368767 1.2961414 718
5.1006465 -7.7168398 1.186619 632
5.5448647 -7.7668014 1.1328657 644
4.7197452 -8.4195232 1.0673146 587
4.8282709 -7.9212422 0.93739176 525
4.9584088 -7.5101919 0.82375884 567
5.4291759 -7.6103702 0.76858324 481
4.6838307 -8.3588753 0.71036214 497
5.0938029 -8.3634405 0.6332556 80
4.9458451 -7.4968524 0.49584445 536
5.4299846 -7.6143141 0.42958513 466
6.1065812 -10.902411 0.47131577 129
6.7904687 -11.157937 0.3694115 69
4.9416213 -7.4961414 0.169259 582
5.4036288 -7.5857553 0.087781087 462
0 -0 0 11
0 -0 -0 6
4.9345217 -7.493907 -0.15661789 602
5.3907366 -7.5704527 -0.24985535 495
0 -0 -0 10
0 -0 -0 6
4.9297919 -7.4867244 -0.48233652 571
3.4950497 -4.910068 -0.3812958 746
0 -0 -0 6
0 -0 -0 5
4.9311438 -7.4973207 -0.80876893 592
3.6450799 -5.1246257 -0.62770081 644
7.6981335 -13.800335 -1.7055103 15
3.4246805 -5.6473098 -0.77586043 591
3.36169 -5.1150084 -0.77757937 855
3.4631467 -4.870645 -0.81759328 732
2.9564714 -5.3087325 -0.88104475 668
3.1175148 -5.1448421 -0.92912501 855
3.2155805 -4.8982806 -0.96267164 770
3.2865701 -4.6257219 -0.98932129 885
2.7399616 -4.9260263 -1.0294561 822
2.9010417 -4.795146 -1.0772115 744
2.9479947 -4.4923773 -1.0863712 852
3.0967979 -4.3586249 -1.1355121 853
2.478369 -4.4648914 -1.1293055 844
2.6189322 -4.3339677 -1.1690706 948
2.7791796 -4.2367353 -1.2211396 958
2.9128125 -4.0996723 -1.2660209 835
2.4072986 -4.3457875 -1.2949913 940
2.5268512 -4.1898422 -1.3247677 940
2.6664569 -4.0679903 -1.3690422 961
2.7488225 -3.8674326 -1.3892726 713
7.5483699 -13.683902 4.7510576 32
10.300205 -17.100351 5.8451171 23
9.2878838 -14.192191 4.780364 26
10.249781 -14.459054 4.8153667 32
7.5696416 -13.705491 4.1162863 38
11.56639 -19.210051 5.6531677 28
9.279645 -14.195819 4.1029949 36
10.235271 -14.459972 4.1128321 24
7.564301 -13.695821 3.4972727 61
12.742597 -21.180281 5.2674952 24
9.3097477 -14.25273 3.460449 39
10.218157 -14.457186 3.42522 49
7.5838876 -13.725624 2.9035554 53
0 -0 0 4
9.29039 -14.239373 2.8116293 45
10.194105 -14.444542 2.7558913 43
7.5233626 -13.616083 2.2971556 109
4.8762894 -8.1083946 1.3028253 663
5.0461574 -7.7371917 1.184965 665
5.4387579 -7.7178817 1.1208415 581
4.7021246 -8.5100927 1.0751181 543
4.7949543 -7.9763002 0.94040781 538
4.9263668 -7.5621691 0.82612884 605
5.365737 -7.6199088 0.76620704 510
4.6527033 -8.4241219 0.71346736 481
5.050097 -8.4073696 0.63422352 67
4.9106464 -7.5437942 0.49694693 541
5.3475113 -7.5968428 0.4267402 477
6.0405364 -10.941425 0.47139114 163
6.6879258 -11.142826 0.36754566 51
4.9102521 -7.5489502 0.1697679 565
5.3230476 -7.5705075 0.087225027 487
0 -0 0 7
0 -0 -0 9
4.9015207 -7.5441661 -0.15703675 548
5.3142924 -7.5608602 -0.24845786 545
0 -0 -0 5
0 -0 -0 11
4.9109631 -7.5586991 -0.48502302 570
3.4602661 -4.9248877 -0.38079068 644
0 -0 -0 0
0 -0 -0 5
4.9013133 -7.5525002 -0.81146181 594
3.633579 -5.1753983 -0.63117707 623
0 -0 -0 9
3.4032187 -5.6903782 -0.77889383 480
3.3410366 -5.1521859 -0.78009987 816
3.4428716 -4.9055896 -0.81989753 774
2.9200325 -5.3198328 -0.87989682 701
3.0828464 -5.1587839 -0.92820919 804
3.1827824 -4.9137774 -0.96186101 736
3.2666099 -4.6578994 -0.99189764 884
2.6983349 -4.9220428 -1.0251443 802
2.8695519 -4.8094826 -1.0764564 755
2.9193091 -4.5087357 -1.0859749 829
3.0655024 -4.3711376 -1.1338502 827
2.4532695 -4.4842978 -1.1303852 761
2.5843093 -4.3365636 -1.1654714 937
2.7499616 -4.2488117 -1.2197337 958
2.894841 -4.1277895 -1.2691945 872
2.3805878 -4.360477 -1.2949913 936
2.4941874 -4.1936536 -1.3211088 911
2.6477187 -4.0939741 -1.3722932 975
2.7200799 -3.8771558 -1.3867437 706
7.4226794 -13.653466 4.7245884 43
0 -0 0 7
9.2209892 -14.280448 4.7909431 40
10.077329 -14.402279 4.7757759 38
7.4687576 -13.721098 4.1071324 51
11.4785 -19.331516 5.6680799 31
9.2529497 -14.346423 4.1300364 60
10.102839 -14.460219 4.0951929 42
7.4385967 -13.665689 3.4778578 45
12.752131 -21.493587 5.3258543 13
9.2438841 -14.343357 3.4686158 54
10.007359 -14.344879 3.3840001 35
7.4068871 -13.601779 2.8676887 64
0 -0 0 10
9.2487688 -14.367453 2.8256602 65
10.06349 -14.446823 2.7444935 37
7.4169655 -13.620287 2.2901437 88
4.8663664 -8.2054758 1.3136015 701
5.0044918 -7.7771835 1.1863647 709
5.3765569 -7.7299123 1.1177765 651
4.659801 -8.5571156 1.0774261 508
4.7606359 -8.0303907 0.94332337 490
4.8911805 -7.6098466 0.8280431 577
5.2540374 -7.5593929 0.75686604 516
4.6371617 -8.5190811 0.71908641 481
4.9963813 -8.4347639 0.63396543 88
4.9014969 -7.6317525 0.50075054 526
5.2432299 -7.5466533 0.4221057 478
5.9269605 -10.893139 0.4677352 188
6.5379653 -11.046019 0.36302236 41
4.8881402 -7.6168022 0.17061608 540
5.2536907 -7.5701661 0.086848043 516
0 -0 0 9
0 -0 -0 8
4.8761821 -7.6069279 -0.15771741 413
5.221076 -7.5259748 -0.24625412 481
0 -0 -0 7
6.492507 -10.991087 -0.56628066 15
4.8914351 -7.6307235 -0.48770955 548
3.4436319 -4.9657097 -0.38230601 563
0 -0 -0 9
6.5094128 -11.028496 -1.0348661 27
4.8790469 -7.6201763 -0.81550115 591
3.627826 -5.2352185 -0.63574576 636
0 -0 -0 8
6.4872413 -10.999701 -1.5001525 55
3.3221917 -5.1926446 -0.78312451 739
3.4183486 -4.9347668 -0.821253 817
2.8812144 -5.3263335 -0.87803143 664
3.0456152 -5.1682367 -0.92653012 762
3.1669192 -4.9556646 -0.96623838 731
3.2452571 -4.6883855 -0.99413049 867
2.6638746 -4.9307179 -1.0235274 807
2.8330157 -4.8151498 -1.0738139 716
2.893172 -4.5290413 -1.0865693 789
3.0308299 -4.3786049 -1.1309419 833
2.4581437 -4.5594282 -1.1455002 702
2.5625889 -4.3607397 -1.167721 941
2.7201772 -4.2598696 -1.2180938 975
2.8700109 -4.1462712 -1.2694386 928
2.3542461 -4.375854 -1.2952435 955
2.4586425 -4.1922259 -1.315882 936
2.6111577 -4.0922904 -1.3663327 896
2.6913216 -3.8866715 -1.3842145 703
7.3301797 -13.682731 4.7190619 35
10.159431 -17.344711 5.8855815 29
9.1642199 -14.385464 4.8072195 33
9.9558649 -14.416199 4.7600446 32
7.2943664 -13.598771 4.0570426 46
11.34595 -19.378155 5.6612349 21
9.0082092 -14.156919 4.0594935 42
9.9956741 -14.495474 4.0877304 46
7.3112431 -13.630234 3.4573524 48
7.832376 -13.387912 3.3053937 19
8.7171869 -13.710124 3.3024855 66
9.8111353 -14.249136 3.3471494 42
7.2907429 -13.586322 2.8549442 43
7.8198953 -13.366578 2.7138815 47
8.6865225 -13.677708 2.6794744 125
9.6516657 -14.038504 2.6556237 76
7.313139 -13.628057 2.2838621 119
4.8369317 -8.2710981 1.3193307 662
4.9736891 -7.8345408 1.1904362 752
5.2874365 -7.7021737 1.109053 654
4.6612554 -8.686264 1.0900655 566
4.7499352 -8.1255884 0.95106459 466
4.8763924 -7.6901751 0.83351231 571
5.1680908 -7.5339594 0.75113034 521
4.6069579 -8.5886774 0.7225613 465
4.9450359 -8.4661245 0.63402998 67
4.8695402 -7.6852994 0.502294 492
5.1719685 -7.5424337 0.42008674 465
5.8231783 -10.860608 0.46479535 127
6.4680495 -11.082474 0.36290929 183
4.8675199 -7.6880455 0.17153966 598
5.1370735 -7.4999619 0.08567939 503
0 -0 0 8
6.4493442 -11.054855 -0.10275586 313
4.857204 -7.6806469 -0.15862493 591
5.1335726 -7.4976568 -0.24429224 494
7.147161 -13.357901 -0.52904147 13
6.442543 -11.060931 -0.56783175 393
4.8712077 -7.7027912 -0.49039608 615
3.519634 -5.1424017 -0.39423928 263
0 -0 -0 10
6.450645 -11.083735 -1.0363159 313
4.854538 -7.6853366 -0.81927127 600
3.6506844 -5.3378706 -0.64547908 645
0 -0 -0 9
6.4390974 -11.072783 -1.5047026 275
3.3087997 -5.2422929 -0.78753543 665
3.3908007 -4.9597378 -0.82193065 841
2.8470819 -5.3412919 -0.87760091 661
3.0183151 -5.1945181 -0.92790395 755
3.1548707 -5.0042186 -0.97191256 764
3.2242084 -4.7195978 -0.99653506 851
2.626636 -4.9339447 -1.0208324 839
2.8048956 -4.834991 -1.0743803 779
2.8653278 -4.5467081 -1.0865693 716
2.9906633 -4.3777342 -1.1259561 793
2.4461541 -4.6046052 -1.1530577 823
2.5406685 -4.3848119 -1.1699705 918
2.6955423 -4.2789474 -1.2187965 990
2.846704 -4.1670065 -1.2704152 958
2.3268988 -4.3893619 -1.2949913 968
2.4290078 -4.2005486 -1.3137912 883
2.5742047 -4.0894985 -1.3601012 908
2.6842093 -3.9276748 -1.3929256 749
7.0299182 -13.317928 4.5782814 56
7.7974696 -13.501532 4.5651541 45
8.5943604 -13.675386 4.5522232 45
9.5177517 -13.964279 4.5914574 77
7.0087819 -13.261063 3.9433863 71
7.7852888 -13.485875 3.9258039 65
8.5971727 -13.695773 3.9120595 33
9.4779682 -13.926791 3.910888 88
6.9798527 -13.206326 3.3389006 104
7.7451949 -13.427246 3.3033092 52
8.6099873 -13.726826 3.2937207 32
9.4520273 -13.909542 3.2536931 56
6.9562912 -13.156188 2.7555375 142
7.7421618 -13.421987 2.715435 50
8.5992918 -13.725735 2.6784956 32
9.4760284 -13.965824 2.6308265 31
6.9542446 -13.152318 2.1969428 170
4.8138008 -8.3486805 1.3269694 641
4.9434228 -7.8934922 1.1947622 648
5.1743541 -7.6374631 1.0951428 637
4.6273828 -8.751606 1.0946816 516
4.7307916 -8.2080259 0.9572978 433
4.8534083 -7.7587876 0.83770543 598
5.0915956 -7.5209622 0.74670571 531
4.5849276 -8.6749754 0.72744095 477
4.8870196 -8.4859304 0.6332556 70
4.8355231 -7.7362008 0.50367206 521
5.0813618 -7.5086684 0.41646174 475
5.7428923 -10.87051 0.46370232 116
6.3974342 -11.11762 0.36276793 239
4.8356147 -7.7423587 0.17208625 556
5.0752778 -7.5081449 0.085415505 535
5.7492394 -10.891728 0.019345921 38
6.400836 -11.128024 -0.10306896 141
4.8300953 -7.7425418 -0.15928812 574
5.0421376 -7.461925 -0.24211541 463
5.7339849 -10.87662 -0.42936853 109
6.4029112 -11.149634 -0.5703578 61
4.8296661 -7.7418542 -0.49098709 499
5.0515881 -7.478724 -0.57096499 451
5.7229047 -10.860197 -0.87563407 157
6.8666859 -11.966894 -1.1149297 57
4.816771 -7.7301936 -0.82088697 373
3.6423571 -5.3964601 -0.64984912 483
5.7199039 -10.8729 -1.3259714 216
6.8991141 -12.033136 -1.6294236 43
3.299118 -5.2987084 -0.79295456 667
3.3652918 -4.9878421 -0.82315058 847
2.7848055 -5.3025861 -0.86841744 605
2.9844201 -5.2095098 -0.9272933 747
3.1199372 -5.0167789 -0.97061563 748
3.2084057 -4.7588964 -1.0006573 830
2.5826044 -4.9238338 -1.0154426 793
2.7556736 -4.8180127 -1.0668302 780
2.8487606 -4.5825171 -1.090929 696
2.9424198 -4.3643703 -1.1178541 777
2.4219298 -4.6273141 -1.155001 841
2.5083995 -4.3910122 -1.167496 950
2.657948 -4.2772408 -1.2136421 965
2.8080716 -4.1650972 -1.2645562 980
2.2972345 -4.3984103 -1.2934778 973
2.4084463 -4.2245975 -1.3166659 904
2.5409389 -4.0921321 -1.3557662 855
2.6718647 -3.9615753 -1.3991076 818
6.9127545 -13.292905 4.5550117 14
7.7439203 -13.60083 4.5825763 17
0 -0 0 10
9.4975986 -14.120106 4.6234441 21
6.8866358 -13.225758 3.9202483 22
7.7268562 -13.57637 3.9382715 16
8.542654 -13.796197 3.925698 24
9.4944391 -14.13671 3.9534023 22
6.8581243 -13.171001 3.3192677 32
7.7168107 -13.569736 3.3266528 24
8.5673637 -13.8469 3.3098559 38
9.4271994 -14.057788 3.2747779 28
6.8886089 -13.223912 2.7608173 23
7.7102995 -13.558287 2.733387 38
8.5283947 -13.80006 2.6827376 25
9.4830627 -14.162456 2.6568558 33
6.8907804 -13.228081 2.2024939 48
4.786962 -8.4211226 1.3337898 604
4.9094925 -7.9473033 1.1983249 695
5.1042128 -7.6343961 1.0901916 636
4.599771 -8.83008 1.1009463 520
4.7201529 -8.3069668 0.96544117 555
4.8234892 -7.8172359 0.84080458 546
5.011579 -7.5015097 0.74170738 531
4.5495749 -8.7374411 0.73032439 473
4.7979064 -8.4506712 0.62841564 87
4.7554746 -7.7130308 0.50025439 66
5.0030169 -7.4915237 0.41380036 509
5.6054959 -10.769922 0.45793575 226
6.2891459 -11.08624 0.36047801 71
0 -0 0 6
4.9869404 -7.4759231 0.084699228 497
5.6564636 -10.877116 0.019257955 216
6.2860694 -11.085324 -0.10231429 13
0 -0 -0 5
4.9790649 -7.4669399 -0.24128228 495
5.6657577 -10.908938 -0.42926383 190
0 -0 -0 5
0 -0 -0 4
4.9624286 -7.4448056 -0.56604016 473
5.6432915 -10.87032 -0.87364185 82
0 -0 -0 4
0 -0 -0 5
4.9639277 -7.4526901 -0.8937785 538
6.8471045 -13.211697 -1.6060382 26
0 -0 -0 11
3.2821183 -5.3442121 -0.79673535 712
3.3390164 -5.0149946 -0.8242349 846
2.7149265 -5.2474971 -0.85665101 577
2.948025 -5.2199793 -0.92591959 717
3.0890961 -5.0358281 -0.97061563 731
3.1911504 -4.7965374 -1.0044359 813
2.5536985 -4.9422092 -1.0159816 814
2.7217181 -4.8271313 -1.0651313 797
2.8477447 -4.6441965 -1.1014321 730
2.9107089 -4.3750129 -1.1159846 774
2.3993087 -4.6533694 -1.1578082 895
2.4847562 -4.4122634 -1.1690706 974
2.6301291 -4.2909822 -1.2129391 999
2.7803135 -4.179019 -1.2635796 983
2.2688751 -4.409842 -1.2927212 922
2.380115 -4.2350888 -1.3153592 898
2.5077381 -4.0945125 -1.3514313 903
2.6666493 -4.0066566 -1.4092238 876
6.8707557 -13.41256 4.5814805 20
7.7030663 -13.724247 4.6081471 39
10.341442 -16.912535 5.5871277 25
9.5212507 -14.344549 4.6777177 25
6.8936324 -13.439872 3.9711013 30
7.6813636 -13.691178 3.9578285 49
0 -0 0 7
9.4527216 -14.262905 3.972398 41
6.8626957 -13.379558 3.3611512 36
7.690794 -13.719207 3.3516636 54
0 -0 0 8
9.390069 -14.189874 3.2920635 51
6.8791652 -13.405904 2.7899475 39
7.6606774 -13.665484 2.7454703 61
0 -0 0 5
9.414505 -14.248405 2.6620924 51
6.8962011 -13.439103 2.2305419 83
4.773458 -8.518609 1.344566 609
4.8792162 -8.0077705 1.2029055 679
5.0386801 -7.6373892 1.0861835 683
4.562294 -8.8908577 1.105013 546
4.7084761 -8.4060841 0.97358447 550
4.8147793 -7.9113369 0.84773231 590
4.9544859 -7.5154777 0.74006867 608
4.5341096 -8.8397303 0.73653489 446
4.7581477 -8.5017214 0.63002896 88
5.802196 -9.5412951 0.61651188 41
4.9432135 -7.5012269 0.41265318 559
5.5269976 -10.780105 0.45691809 217
6.1502609 -10.998116 0.35637879 84
0 -0 0 6
4.9365764 -7.4996996 0.084623829 608
6.8338304 -13.340478 0.023544656 41
0 -0 -0 6
0 -0 -0 0
4.9337039 -7.4981847 -0.24130914 661
6.7917418 -13.275441 -0.52073538 29
0 -0 -0 9
0 -0 -0 5
4.9199457 -7.4801173 -0.56641906 590
6.7808876 -13.259933 -1.0623298 29
0 -0 -0 7
0 -0 -0 7
4.9257565 -7.4946494 -0.89516896 591
6.825129 -13.369462 -1.6200951 52
0 -0 -0 8
3.2739353 -5.4049783 -0.80278456 719
3.3103583 -5.0387006 -0.82477713 825
2.6718926 -5.2428946 -0.85320717 618
2.8967123 -5.2034297 -0.91981393 664
3.0637572 -5.0639744 -0.97239888 760
3.1654439 -4.8217931 -1.0056382 832
2.517971 -4.9472651 -1.0138257 841
2.6891856 -4.8385901 -1.0639988 810
2.8333974 -4.6850672 -1.1069809 735
2.8773675 -4.382978 -1.1134917 724
2.3676159 -4.6619091 -1.1562966 893
2.4590552 -4.4299827 -1.1697456 958
2.600733 -4.3020482 -1.2115335 1013
2.7572801 -4.2000537 -1.2648003 1002
2.2395871 -4.4193649 -1.2914599 987
2.3517456 -4.2453914 -1.3140526 886
2.4805765 -4.1065264 -1.3503474 807
2.6246295 -3.9964716 -1.3999507 874
6.8021197 -13.4818 4.5907888 30
7.536015 -13.621777 4.5581293 60
10.320483 -17.113314 5.6324306 32
9.3236074 -14.235592 4.6234441 35
6.8319697 -13.523352 3.9833057 41
7.5817266 -13.710052 3.9497614 61
11.609957 -19.274319 5.4435401 18
9.3063841 -14.230961 3.9475229 44
6.7993941 -13.458871 3.3705316 48
7.541194 -13.648004 3.322901 61
12.926193 -21.476433 5.0952578 15
9.2641773 -14.188034 3.2783868 50
6.7941175 -13.442596 2.7888551 45
7.5609632 -13.683782 2.739774 71
0 -0 0 6
9.2961426 -14.258724 2.6533134 59
6.7926373 -13.439668 2.223676 135
4.755105 -8.6093073 1.3542509 570
4.8540015 -8.0775166 1.2088857 599
4.9841385 -7.6565113 1.0845332 723
4.5520411 -9.006505 1.1158938 606
4.6808529 -8.4783669 0.97861129 562
4.7851081 -7.9723239 0.85110509 550
4.9213209 -7.5657868 0.74203521 615
4.5036178 -8.9145603 0.74045342 467
4.7010722 -8.5220194 0.62938362 111
5.7188921 -9.535615 0.61386591 36
4.9134302 -7.5565419 0.41402978 549
5.4454331 -10.783487 0.45563665 210
6.054193 -10.983995 0.35471082 62
0 -0 0 4
4.9051723 -7.5524912 0.084878296 545
6.7230172 -13.32502 0.023444127 99
0 -0 -0 6
0 -0 -0 6
4.8974018 -7.5434089 -0.2417929 583
6.7083588 -13.313294 -0.52059585 82
0 -0 -0 7
0 -0 -0 6
4.9005775 -7.5511856 -0.56951284 556
6.7595229 -13.420663 -1.0718638 69
0 -0 -0 8
0 -0 -0 7
4.907289 -7.5673108 -0.90023422 599
6.6831212 -13.292061 -1.6057163 90
7.5799704 -13.803426 -1.8499314 13
3.2483404 -5.4377394 -0.80467492 559
3.2923133 -5.0788703 -0.82803011 774
2.6352332 -5.2503457 -0.85177225 659
2.8495176 -5.1933799 -0.91492945 682
3.0270662 -5.0733571 -0.97061563 765
3.142225 -4.8510466 -1.0076993 820
2.4831595 -4.9538279 -1.0120291 808
2.6608615 -4.857584 -1.0645651 829
2.8121281 -4.7149911 -1.1099535 755
2.8392522 -4.3833094 -1.1091291 753
2.3337252 -4.6658702 -1.1537055 890
2.4322946 -4.4458423 -1.1699705 938
2.5722959 -4.3145847 -1.2105963 1016
2.7298758 -4.2144513 -1.264068 1016
2.208107 -4.424365 -1.2889374 938
2.3325901 -4.2724495 -1.3179727 917
2.439568 -4.0952063 -1.3416774 758
2.5948393 -4.0044465 -1.3971406 873
6.6911707 -13.466733 4.5715914 28
7.4555078 -13.673658 4.5600963 45
10.240376 -17.218508 5.6462655 34
9.2203712 -14.268217 4.6155782 41
6.7428322 -13.552895 3.9797461 47
7.4515204 -13.672023 3.9255595 63
11.522249 -19.397003 5.4581189 21
9.2738142 -14.372921 3.9710417 48
6.6579981 -13.38238 3.3410821 45
7.4255028 -13.635611 3.3087282 47
0 -0 0 8
9.2237377 -14.317241 3.2951024 52
6.6747036 -13.410089 2.773562 80
7.4104376 -13.607946 2.715435 66
0 -0 0 7
9.2213068 -14.33544 2.6570101 76
6.6487722 -13.35799 2.2033706 130
4.7362909 -8.7009687 1.3640721 484
4.8432837 -8.1728516 1.2186829 603
4.9504809 -7.7078371 1.0874803 732
4.5241518 -9.0894337 1.1227081 594
4.6482391 -8.5427599 0.98273325 501
4.7523322 -8.0289574 0.85402197 495
4.8979516 -7.6319075 0.7455585 576
4.4745989 -8.9938126 0.74474162 481
4.645834 -8.5454435 0.62899643 204
5.5952144 -9.4605198 0.60680997 69
4.8934021 -7.6277466 0.41627818 550
5.3110852 -10.679799 0.44987005 163
5.9747539 -10.998977 0.35400406 74
0 -0 0 6
4.8760028 -7.6093884 0.08517988 576
6.6064224 -13.296167 0.023321604 96
0 -0 -0 8
6.5195937 -11.045469 -0.22387949 14
4.8860707 -7.6280308 -0.24353975 619
6.6114397 -13.323768 -0.51940924 86
0 -0 -0 8
6.5263948 -11.056992 -0.69086367 14
4.8762164 -7.6155729 -0.57210153 539
6.6087928 -13.324273 -1.0609068 76
0 -0 -0 7
6.5011468 -11.027403 -1.1537299 61
4.8811431 -7.6291299 -0.90400839 587
6.5855551 -13.300741 -1.6018533 91
0 -0 -0 12
3.2315297 -5.4857755 -0.80883378 476
3.2749672 -5.1206775 -0.83155417 742
2.5937595 -5.2477851 -0.84875894 668
2.811487 -5.1994653 -0.91294509 658
2.9928772 -5.0867324 -0.96964288 738
3.1092174 -4.8652549 -1.0066688 822
2.4413958 -4.9460359 -1.0073578 855
2.6263409 -4.8651776 -1.0626775 838
2.7781754 -4.7237086 -1.1079718 739
2.804929 -4.3891091 -1.1062207 790
2.3076406 -4.6853576 -1.155001 891
2.4072816 -4.4649715 -1.1710953 911
2.5438027 -4.3269343 -1.2096591 1008
2.6982207 -4.2221336 -1.2613826 1011
2.1821985 -4.4404359 -1.2896943 996
2.3118188 -4.2968817 -1.3211088 914
2.4100065 -4.1026282 -1.3392391 823
2.5640163 -4.0105896 -1.3937685 921
6.5983233 -13.48691 4.5646105 41
7.3569317 -13.692095 4.5511041 41
10.152549 -17.311739 5.6563025 24
9.2358875 -14.486453 4.6677542 36
6.5587087 -13.388175 3.9194856 53
7.3381267 -13.662815 3.909914 51
11.417261 -19.491657 5.4649382 24
8.9751673 -14.099218 3.8801327 48
6.5633092 -13.397566 3.3347559 67
7.3134861 -13.628347 3.2960145 68
7.843811 -13.401754 3.1564744 31
8.7438917 -13.757095 3.1537781 84
6.5485883 -13.361613 2.7551732 63
7.2848835 -13.575047 2.6998994 56
7.8097391 -13.359581 2.559067 80
8.664628 -13.653435 2.5207016 106
6.5453506 -13.355007 2.1962123 144
4.7221498 -8.8031979 1.3755304 473
4.8100591 -8.2315331 1.2230091 608
4.9084086 -7.7464561 1.0886592 700
4.4997897 -9.181284 1.1306214 519
4.6328759 -8.6403904 0.99067551 542
4.7361083 -8.1147299 0.86003816 500
4.87289 -7.6963415 0.748918 619
4.4438987 -9.0712509 0.74888194 429
4.5951977 -8.5773077 0.62925458 285
5.5350485 -9.4912233 0.60658944 59
4.8710814 -7.6964564 0.41838893 547
5.2300739 -10.680775 0.44855091 205
5.8297873 -10.8909 0.34936768 75
6.463377 -11.091969 0.24201398 251
4.8527312 -7.6763539 0.085594572 599
6.493073 -13.271779 0.023208506 89
0 -0 -0 8
6.459744 -11.099091 -0.22415872 345
4.8509221 -7.6764588 -0.24413101 603
6.5058708 -13.315595 -0.51752466 81
0 -0 -0 11
6.4523997 -11.086473 -0.69021887 368
4.8565784 -7.6883812 -0.57532161 609
6.4708838 -13.249849 -1.0517997 76
0 -0 -0 8
6.4388676 -11.076557 -1.1547173 335
4.8491106 -7.682497 -0.9067893 606
6.4532804 -13.237232 -1.5894059 93
7.0515671 -13.223244 -1.7604449 15
3.2561049 -5.6058655 -0.82357883 596
3.2593462 -5.1658134 -0.83562052 756
2.5602117 -5.2609315 -0.84832841 740
2.7381699 -5.1389923 -0.89936006 641
2.9556673 -5.094758 -0.96769738 729
3.0772049 -4.880908 -1.0059818 773
2.4019716 -4.9423428 -1.003585 801
2.5872157 -4.8638606 -1.0589025 805
2.7461886 -4.7355785 -1.1067827 786
2.7727282 -4.3979621 -1.1041433 791
2.2762921 -4.6941571 -1.1537055 900
2.3876109 -4.4942861 -1.1749194 756
2.5191555 -4.3458261 -1.2105963 1012
2.6717463 -4.2377896 -1.2611384 990
2.1452177 -4.4337072 -1.2838928 949
2.2863145 -4.3126912 -1.3216316 911
2.3823757 -4.1131735 -1.3378843 850
2.5291202 -4.0100121 -1.3881485 893
6.4286723 -13.346988 4.503819 45
7.0936098 -13.398558 4.4389844 65
7.7989912 -13.487515 4.3910875 77
8.6207161 -13.706368 4.3992724 64
6.4192977 -13.309695 3.8849053 56
7.0242028 -13.273062 3.7859721 90
7.7333627 -13.390192 3.740876 82
8.5906153 -13.679692 3.7501013 27
6.4585104 -13.390998 3.3231945 55
6.9801097 -13.200887 3.182215 120
7.7687793 -13.462363 3.1594622 57
8.6045523 -13.723148 3.1338332 33
6.4297314 -13.325383 2.7395158 67
6.9670968 -13.176277 2.6120374 160
7.7172728 -13.389298 2.5556407 33
8.5838356 -13.711368 2.521626 66
6.4224415 -13.310275 2.1823344 143
4.7110963 -8.9134598 1.3882163 408
4.7975879 -8.3270683 1.2328063 562
4.8876281 -7.8193727 1.0946712 707
4.483108 -9.2910776 1.140733 504
4.6132355 -8.7319937 0.99791408 548
4.7204995 -8.2031937 0.86632776 500
4.8493328 -7.7641349 0.75260526 645
4.426712 -9.1782913 0.75546211 416
4.5615816 -8.6415253 0.63190043 404
5.4577947 -9.4921141 0.60449475 62
4.8422818 -7.7558579 0.41999498 563
5.1505527 -10.68386 0.44734478 200
5.7539921 -10.909667 0.34883055 152
6.4210958 -11.1765 0.24299408 95
4.83464 -7.7526517 0.086112924 592
6.4050074 -13.297855 0.023184944 93
5.7103662 -10.831532 -0.098308109 90
6.3905244 -11.136784 -0.22412382 120
4.8285832 -7.7459497 -0.24539413 501
6.3863564 -13.27691 -0.5144884 90
5.7066894 -10.8429 -0.54354608 172
6.8310418 -11.904474 -0.73852241 50
4.8172293 -7.730741 -0.57626873 403
6.3324099 -13.170642 -1.042408 73
5.7242947 -10.88557 -0.99386775 209
6.8982139 -12.03613 -1.2503155 41
4.8034587 -7.7146401 -0.90708733 247
6.3448353 -13.22011 -1.5826457 80
5.7096481 -10.866923 -1.4420503 241
3.2349572 -5.6489825 -0.82698154 510
3.2396293 -5.2050619 -0.83873796 681
2.517621 -5.2551217 -0.84488463 694
2.7070456 -5.1565719 -0.89951265 734
2.9150422 -5.0965228 -0.96461713 738
3.0628061 -4.9247942 -1.0111344 833
2.370327 -4.9543252 -1.003046 851
2.5500293 -4.8657274 -1.0558825 822
2.7122152 -4.7438307 -1.1048011 781
2.7441409 -4.4124007 -1.10352 805
2.2428193 -4.6983428 -1.1513302 925
2.3821301 -4.5511522 -1.1859421 839
2.4919603 -4.3603573 -1.210362 1023
2.6426206 -4.2491627 -1.2596737 973
2.1221337 -4.4555235 -1.2864152 944
2.2615967 -4.3300614 -1.322677 934
2.3609114 -4.1344013 -1.3400518 849
2.49737 -4.0140467 -1.3842145 811
6.3364081 -13.364569 4.4965467 47
6.9185023 -13.26399 4.3802552 29
7.743258 -13.582778 4.4065504 20
8.5618906 -13.800007 4.4123816 17
6.3300443 -13.333107 3.8803287 58
6.9323182 -13.296136 3.7803495 32
7.7140584 -13.548039 3.7716796 20
8.5460148 -13.795908 3.767514 29
6.2900014 -13.248763 3.2782569 56
6.8813572 -13.20964 3.1740866 24
7.6913595 -13.519147 3.1616533 16
8.5749283 -13.864195 3.1539679 29
6.2702236 -13.201158 2.7060161 80
6.8902135 -13.22664 2.613591 41
7.7168593 -13.580507 2.5830507 29
8.4055758 -13.611613 2.4937479 92
6.2294478 -13.11531 2.1440609 126
4.719913 -9.0643339 1.407177 288
4.7718773 -8.4011965 1.2394227 550
4.846333 -7.8602042 1.0962037 620
4.4571447 -9.3839512 1.1487563 467
4.587131 -8.8130875 1.0039462 502
4.6916971 -8.2701149 0.87033856 512
4.8183298 -7.8208961 0.75522721 582
4.3981128 -9.2638388 0.76026785 410
4.5522122 -8.753459 0.63803095 492
5.3876319 -9.5045767 0.60317171 52
6.6243339 -10.756524 0.58027494 41
5.0450583 -10.631303 0.44383964 206
5.6638985 -10.900416 0.347417 194
0 -0 0 10
0 -0 0 6
6.2928762 -13.272752 0.02307342 84
5.6378059 -10.85483 -0.098203741 133
0 -0 -0 7
6.8722105 -11.176491 -0.35273224 85
5.0166163 -10.595229 -0.40937111 177
5.6543064 -10.905206 -0.54491991 95
0 -0 -0 8
0 -0 -0 6
5.0072408 -10.580201 -0.83493668 196
5.6468492 -10.900132 -0.99201524 29
0 -0 -0 9
0 -0 -0 9
4.9810662 -10.543926 -1.2585837 208
6.8604608 -13.254096 -1.7532113 29
3.2090132 -5.6842752 -0.82925004 257
3.2408059 -5.2788801 -0.84741271 739
2.4827962 -5.2651 -0.84402364 671
2.6662745 -5.1555281 -0.89645988 753
2.8798385 -5.1074371 -0.96332014 733
3.0320156 -4.9426546 -1.0109627 791
2.3398831 -4.9687762 -1.003046 860
2.5124671 -4.8664484 -1.0526736 822
2.6782439 -4.7518444 -1.1028193 782
2.7149692 -4.4258204 -1.102689 830
2.2093811 -4.7022953 -1.148955 876
2.366663 -4.5899315 -1.1922406 912
2.4694533 -4.3831887 -1.2124707 984
2.6139629 -4.2611642 -1.2584531 970
2.0984519 -4.476346 -1.2886853 960
2.2385182 -4.3507228 -1.3247677 940
2.3421094 -4.1605535 -1.3438449 890
2.4666696 -4.0194793 -1.3808424 791
6.0435033 -12.951482 4.3450041 42
6.8615479 -13.353995 4.3959913 31
7.7003222 -13.702193 4.4298792 57
8.4931726 -13.878621 4.4207716 20
6.0258012 -12.895919 3.7422631 73
6.9099665 -13.454003 3.8131073 39
7.7592325 -13.823962 3.8351681 61
0 -0 0 12
6.0408573 -12.928141 3.1896906 74
6.8242869 -13.298602 3.1853414 36
7.7228274 -13.770363 3.2092614 74
0 -0 0 11
6.0296197 -12.898221 2.6362855 73
6.8691864 -13.386098 2.6367216 59
7.6464038 -13.650843 2.5874557 48
8.2252693 -13.504287 2.464792 111
6.0256863 -12.889808 2.1011124 98
6.8660951 -13.385825 2.07148 83
4.7536745 -8.4900341 1.2482021 590
4.8537369 -7.9814258 1.1089352 712
4.4339976 -9.4849567 1.1577687 525
4.56429 -8.9021568 1.0108831 569
4.6734304 -8.3569813 0.87644589 505
4.8137255 -7.9218588 0.76211011 598
4.3707399 -9.3538952 0.76544327 421
4.5120664 -8.8078718 0.63996696 444
5.306808 -9.4973612 0.60063607 68
6.5530224 -10.78843 0.57981604 71
4.9505529 -10.599585 0.441239 231
5.5682158 -10.878906 0.34563598 92
0 -0 0 7
0 -0 0 5
4.9622035 -10.634211 0.018433288 89
6.7976298 -13.286592 -0.11982431 21
0 -0 -0 9
6.7972832 -11.208191 -0.35240972 56
4.9472895 -10.616753 -0.40902212 66
6.7578182 -13.23155 -0.65908015 25
0 -0 -0 12
0 -0 -0 0
4.9649696 -10.659553 -0.83877873 34
6.8071942 -13.33972 -1.2102166 38
0 -0 -0 8
0 -0 -0 5
4.9158573 -10.57339 -1.2584764 25
6.8245692 -13.385307 -1.764995 65
0 -0 -0 7
3.2093806 -5.3003612 -0.84768379 738
2.459192 -5.2990866 -0.84703702 698
2.6305535 -5.1638656 -0.89508611 775
2.8383787 -5.1068988 -0.95991564 703
2.9995911 -4.9577942 -1.0102757 794
2.3031468 -4.9696517 -1.0003511 852
2.4816697 -4.880022 -1.0522962 821
2.6457045 -4.7621908 -1.1014321 762
2.6826982 -4.4340267 -1.1006117 843
2.1767988 -4.707787 -1.1470118 901
2.3362491 -4.6000228 -1.1911159 932
2.442512 -4.3982582 -1.2124707 998
2.5827479 -4.268826 -1.256012 974
2.0595961 -4.4645348 -1.2816226 908
2.2047992 -4.3506007 -1.3205862 926
2.3254106 -4.1908383 -1.3489927 900
2.435997 -4.0246863 -1.3774706 963
5.9910693 -13.047444 4.3647833 14
6.7929149 -13.422391 4.4047022 53
7.5657325 -13.658253 4.4005818 58
10.330677 -17.116282 5.4317737 21
6.0358515 -13.126842 3.7984557 15
6.7905173 -13.423468 3.7925727 54
7.5759234 -13.693561 3.7860231 61
12.819014 -21.272614 5.7659254 24
6.033989 -13.122792 3.2285202 20
6.7893252 -13.43275 3.2074344 85
7.5609112 -13.677695 3.1767924 49
12.768191 -21.221775 4.7917366 20
5.9548845 -12.944802 2.6382883 29
6.800251 -13.454367 2.6419001 62
7.3951225 -13.394341 2.5301888 42
8.0974798 -13.479967 2.4512384 128
6.0287571 -13.105387 2.1301827 47
6.7847257 -13.429471 2.0717528 129
4.7259326 -8.5633307 1.2546912 624
4.8322535 -8.057044 1.1153009 678
4.3935776 -9.5508127 1.1624948 573
4.548152 -9.0063734 1.0195292 485
4.6465812 -8.4299774 0.88109469 497
4.782958 -7.9811668 0.76497793 620
4.3378439 -9.4339952 0.76980537 406
4.4912019 -8.9013205 0.64474231 494
5.2431345 -9.5201225 0.60002965 85
6.4512811 -10.769305 0.5766499 51
4.8637218 -10.582546 0.43927911 229
5.4743605 -10.859311 0.34393972 94
0 -0 0 6
0 -0 0 5
6.0256205 -13.12269 0.022682291 68
6.7177763 -13.331623 -0.11985641 84
0 -0 -0 12
0 -0 -0 5
6.0209212 -13.130582 -0.50443733 71
6.6926651 -13.304895 -0.66067553 86
0 -0 -0 7
0 -0 -0 4
6.0045424 -13.100897 -1.0279647 62
6.6858258 -13.302864 -1.2031285 85
7.4974165 -13.658388 -1.4042598 14
0 -0 -0 4
6.0085983 -13.133946 -1.5588238 89
6.6937308 -13.330187 -1.752278 101
3.3608472 -6.1276798 -0.88785201 139
3.175782 -5.3182526 -0.84741271 737
2.4278643 -5.3167763 -0.84746742 735
2.6005919 -5.1834426 -0.8956967 814
2.7913456 -5.0956593 -0.95456564 687
2.9630568 -4.9659543 -1.0082146 828
2.266896 -4.9711595 -0.99783587 822
2.4543183 -4.9004259 -1.0534286 857
2.6065488 -4.7602806 -1.0972705 765
2.6534362 -4.4470434 -1.0997807 823
2.1462538 -4.7174997 -1.146148 890
2.3018775 -4.6020708 -1.1879666 856
2.417346 -4.416574 -1.2134079 993
2.5565062 -4.2845931 -1.256012 962
2.0349631 -4.4832563 -1.2833883 953
2.1776319 -4.363183 -1.3203248 940
2.3065805 -4.2176967 -1.3530569 941
2.4053533 -4.0296688 -1.3740985 984
5.9857407 -13.249623 4.4200482 46
6.6967292 -13.436332 4.39571 57
7.4757895 -13.693437 4.3970556 72
10.275311 -17.2631 5.4582543 27
5.9719353 -13.200639 3.8091347 62
6.6998091 -13.448391 3.7879279 66
7.463376 -13.687735 3.7716796 59
12.70218 -21.374315 5.7722573 17
5.9581823 -13.170238 3.2311378 78
6.6688595 -13.397982 3.1893015 64
7.4374628 -13.651545 3.1600597 54
0 -0 0 7
5.9763012 -13.204151 2.6836221 83
6.6789441 -13.418242 2.6267099 71
7.2057557 -13.242744 2.4931529 92
7.960732 -13.438437 2.4347582 119
5.9588361 -13.165565 2.133981 132
6.6510072 -13.367964 2.0559297 138
4.7003136 -8.6418333 1.2619438 572
4.803957 -8.1224413 1.120252 633
4.378335 -9.6735754 1.174145 555
4.5198293 -9.0884533 1.0256618 464
4.631846 -8.5265846 0.88820475 501
4.7648273 -8.0627031 0.7699762 604
4.3152266 -9.5385742 0.7761637 370
4.4640312 -8.9841185 0.64874333 502
5.1831927 -9.5494823 0.5998643 104
6.3830485 -10.805247 0.57646638 64
4.769052 -10.546632 0.4365654 202
5.3831797 -10.843454 0.34238487 85
0 -0 0 11
0 -0 0 5
5.9351068 -13.137544 0.022644591 76
6.5936217 -13.287496 -0.11909371 100
0 -0 -0 8
6.5282083 -11.068612 -0.345476 19
5.9340758 -13.153614 -0.50391388 68
6.5922775 -13.308111 -0.65881425 88
0 -0 -0 8
6.5074983 -11.037901 -0.81064028 60
5.9051824 -13.095665 -1.0246918 69
6.5452724 -13.224825 -1.1924158 68
7.4295807 -13.733918 -1.4073118 21
6.4606886 -10.967252 -1.2704983 105
5.9091263 -13.128863 -1.5538878 91
6.5726314 -13.291773 -1.7418941 103
3.315166 -6.1333499 -0.88570958 438
3.1435926 -5.3384924 -0.84754825 748
2.3903286 -5.3207407 -0.8457455 720
2.5573564 -5.1762652 -0.89172804 783
2.7469013 -5.0883775 -0.95002621 729
2.9260359 -4.9730039 -1.0059818 783
2.2399747 -4.993053 -0.99945277 852
2.4211631 -4.9092278 -1.0521075 810
2.5717056 -4.7658334 -1.0948925 769
2.627588 -4.4657702 -1.100404 851
2.116071 -4.7279067 -1.1455002 906
2.2735965 -4.6161084 -1.1879666 897
2.3934317 -4.4373126 -1.2150478 928
2.5306602 -4.3010349 -1.256256 933
2.0097833 -4.5009599 -1.2849017 958
2.147413 -4.3695326 -1.318234 934
2.2861378 -4.2419381 -1.356308 950
2.3762009 -4.0369081 -1.3715694 967
5.8732462 -13.216157 4.3967791 42
6.593864 -13.435815 4.3822222 48
7.3250484 -13.615297 4.35745 67
10.203385 -17.384081 5.4766078 30
5.8837471 -13.221128 3.8045578 60
6.5919695 -13.437884 3.7735047 71
7.3189821 -13.62111 3.740876 56
12.573746 -21.456896 5.7736139 15
5.8772588 -13.206549 3.2311378 72
6.5667253 -13.39825 3.179714 87
7.3211107 -13.636486 3.146116 71
7.8409228 -13.40185 3.0040956 43
5.8815713 -13.210032 2.6774321 75
6.5210576 -13.305073 2.5966747 58
7.0637546 -13.173675 2.4719429 127
7.8053641 -13.362466 2.412271 146
5.8731132 -13.191034 2.1322279 148
6.5544753 -13.379164 2.0514281 139
4.6706281 -8.714222 1.2683057 549
4.7810426 -8.1980858 1.1266178 645
4.3524518 -9.7756233 1.1832674 557
4.4998584 -9.1892862 1.0339057 493
4.6076393 -8.607522 0.89367402 486
4.7373438 -8.1296759 0.77358145 563
4.2862172 -9.6313839 0.78156096 378
4.4482918 -9.0920143 0.65455127 494
5.1207333 -9.5740623 0.59942329 86
6.3085837 -10.830399 0.57573223 65
4.6847553 -10.531871 0.43475628 229
5.2348924 -10.709243 0.33712652 70
0 -0 0 8
6.4716988 -11.123817 0.1212951 338
5.8405771 -13.142644 0.022591185 70
6.5119672 -13.327703 -0.11909371 77
0 -0 -0 9
6.4606724 -11.109325 -0.34550288 398
5.8390665 -13.157804 -0.50269234 71
6.4956059 -13.317781 -0.65730745 106
6.9544702 -13.029867 -0.79472423 17
6.4546957 -11.103507 -0.81253445 402
5.8380642 -13.161741 -1.0270396 72
6.4565802 -13.249504 -1.1910465 96
7.0762515 -13.274764 -1.3557876 21
6.4362545 -11.080685 -1.2790397 260
5.822823 -13.152146 -1.5523856 80
6.4383454 -13.223804 -1.727777 70
3.2774701 -6.1535759 -0.88570958 500
3.1167469 -5.3679624 -0.84917474 714
2.3516362 -5.3217292 -0.84359318 745
2.5233855 -5.1874156 -0.89096481 768
2.7017255 -5.0790009 -0.94516265 765
2.8974445 -4.9942722 -1.0066688 816
2.1961901 -4.9770031 -0.99352396 835
2.3746946 -4.8904228 -1.0449347 798
2.541034 -4.7789273 -1.094298 806
2.5932648 -4.4699636 -1.0974957 814
2.0905619 -4.7488441 -1.1474435 930
2.2422538 -4.6238351 -1.1863919 903
2.3739159 -4.4665084 -1.2190309 850
2.509088 -4.3248696 -1.2586972 962
1.9774588 -4.5025749 -1.2818749 942
2.1167779 -4.3748069 -1.315882 944
2.2528434 -4.2422833 -1.3519731 903
2.3513861 -4.0514121 -1.3715694 986
5.7981734 -13.265972 4.401433 34
6.469964 -13.390473 4.354403 59
7.1318212 -13.453339 4.2915306 83
7.7923265 -13.464801 4.2267518 97
5.7893286 -13.226858 3.795913 56
6.4528837 -13.361075 3.740747 64
7.0510769 -13.317869 3.6456435 93
7.7343082 -13.386096 3.5890887 74
5.7808533 -13.207496 3.2226303 69
6.4482632 -13.363418 3.1619978 69
6.9889398 -13.211658 3.0381513 120
7.7717891 -13.472671 3.0092244 47
5.8063216 -13.259382 2.6801629 58
6.4307351 -13.327092 2.5932221 62
6.9413104 -13.138258 2.4572592 209
7.7010365 -13.371577 2.4053402 42
5.7904768 -13.223198 2.1316438 115
6.4386907 -13.349531 2.0407884 133
4.6550522 -8.8146362 1.2787392 584
4.7474799 -8.2565374 1.1306258 642
4.3167086 -9.8576841 1.1899717 450
4.4671531 -9.266016 1.0394353 502
4.5742502 -8.6726265 0.89750248 521
4.7206368 -8.2164898 0.77907139 569
4.2390356 -9.6849098 0.78377903 350
4.4158049 -9.1676865 0.65803599 493
5.0511851 -9.5849857 0.59815544 101
6.2181311 -10.827323 0.57352966 61
4.5924087 -10.497247 0.43215567 201
5.1625814 -10.727652 0.33670247 82
5.747304 -10.915157 0.23255205 84
6.4988499 -11.329857 0.12310463 64
5.7794495 -13.223132 0.022668153 95
6.3719826 -13.246657 -0.1180179 104
5.728703 -10.893664 -0.21483913 154
6.7369652 -11.749729 -0.36412716 28
5.7902036 -13.266662 -0.50548434 67
6.3662004 -13.258324 -0.65243262 123
5.7264118 -10.889307 -0.66201055 230
6.8236547 -11.905737 -0.86815983 45
5.8098416 -13.317997 -1.0364314 80
6.3393774 -13.214281 -1.1843611 62
5.7132673 -10.878134 -1.107412 300
6.8398948 -11.943734 -1.3737909 31
2.4623938 -5.6553559 -0.66572201 81
6.3154449 -13.176187 -1.71646 84
3.2419555 -6.1779628 -0.88633972 492
3.0980253 -5.411921 -0.85310549 664
2.3177552 -5.3333354 -0.84316272 719
2.4838254 -5.1867566 -0.88821727 744
2.6636393 -5.0823727 -0.94273078 777
2.8559849 -4.9931436 -1.0028901 761
2.1628692 -4.9840684 -0.99226636 824
2.3442194 -4.9040155 -1.044746 855
2.5084794 -4.7883511 -1.0929109 783
2.5653031 -4.484942 -1.0972878 745
2.0582807 -4.7544141 -1.1457161 933
2.2092228 -4.6278338 -1.1839175 881
2.3532302 -4.4939089 -1.2225453 894
2.4834671 -4.3418674 -1.2591856 932
1.9474922 -4.5092936 -1.2803614 922
2.0890646 -4.3859701 -1.3153592 945
2.2285559 -4.2594385 -1.3530569 936
2.3317261 -4.0749269 -1.3746605 960
5.7155328 -13.298662 4.4005599 28
6.3481073 -13.34672 4.3274269 66
6.8780346 -13.169235 4.1873622 41
7.6904325 -13.478834 4.2162647 20
5.7937069 -13.461122 3.8528683 65
6.3341427 -13.323354 3.7192342 57
6.906745 -13.241097 3.6129587 26
7.6664915 -13.458694 3.5958731 30
5.7548771 -13.370904 3.2538247 57
6.2990055 -13.261381 3.1286502 68
6.910008 -13.258636 3.0391474 37
7.706449 -13.550828 3.0160627 27
5.7637434 -13.385072 2.6983695 74
6.1180964 -12.880511 2.4989734 76
