# .PCD v0.7 - Point Cloud Data file format
VERSION 0.7
FIELDS x y z intensity
SIZE 4 4 4 4
TYPE F F F F
COUNT 1 1 1 1
WIDTH 1358
HEIGHT 1
VIEWPOINT 0 0 0 1 0 0 0
POINTS 1358
DATA ascii
2.7091289 -11.58396 3.3529279 252
5.0580235 -18.497742 5.2102237 112
1.700923 -10.8953 2.8991225 611
2.254343 -11.583423 2.9750941 419
2.7417722 -11.751285 2.9192896 398
3.1823425 -11.670189 2.8082228 427
1.7049277 -10.920952 2.4706905 662
2.2367351 -11.51438 2.4996271 260
2.6648204 -11.439512 2.3875742 335
3.0897882 -11.362022 2.2780981 374
1.7015028 -10.886546 2.0402083 673
2.2376039 -11.518853 2.0563838 334
2.6580892 -11.437717 1.9418563 410
3.0736198 -11.333809 1.8305352 794
1.7004032 -10.879511 1.6260502 711
2.2475049 -11.580619 1.6243372 1020
2.660862 -11.458718 1.5090395 960
3.0709851 -11.35547 1.3964543 545
1.6992202 -10.871942 1.2167891 674
2.2326496 -11.51482 1.1852114 869
2.6953647 -11.634946 1.0932101 501
3.1150694 -11.534454 0.98227888 446
1.6962261 -10.865214 0.81527507 606
2.2341723 -11.544237 0.76038426 1102
2.687645 -11.62007 0.65846157 473
3.1119401 -11.530863 0.54861355 418
1.6908441 -10.843157 0.41391361 673
2.2157071 -11.470285 0.33039811 1022
2.6779742 -11.596695 0.22437184 508
3.100198 -11.51131 0.11236054 419
1.6844133 -10.826741 0.01721121 725
2.1658211 -11.222553 -0.091764934 753
2.6632156 -11.560391 -0.20707281 505
3.0883744 -11.475384 -0.31948805 386
1.6775705 -10.820051 -0.38235891 665
2.0950105 -10.896518 -0.4922272 594
1.2703698 -5.5143757 -0.30448937 270
1.3672608 -5.083827 -0.33305767 44
0.79027879 -5.1030498 -0.36833975 113
0.94038248 -4.9003196 -0.40321758 235
1.0913051 -4.7484617 -0.43912292 247
0 -0 -0 5
0.72463322 -4.7008553 -0.51334852 100
0 -0 -0 6
0 -0 -0 4
1.1749368 -4.3778553 -0.62010765 587
0 -0 -0 9
0.82953072 -4.3390369 -0.68230474 650
1.3913258 -6.0781989 -1.0244396 17
1.1121628 -4.1497426 -0.74903297 646
0.64989311 -4.2504811 -0.78529716 753
0.79389286 -4.1684017 -0.81560028 700
0.93076664 -4.069448 -0.84400856 606
1.0349272 -3.8615584 -0.84903741 53
0.59896946 -3.9404392 -0.88141978 33
0.71827465 -3.7821357 -0.88878167 203
0.83257818 -3.6430788 -0.90062553 234
0.93386662 -3.4844773 -0.9081369 235
0.53409827 -3.5344286 -0.93176818 247
0.65073377 -3.4428818 -0.94868946 307
0.75717157 -3.3184581 -0.95803142 337
0.85817713 -3.1998284 -0.97001803 415
1.6344591 -10.947449 3.3650656 632
2.1829045 -11.584208 3.4515445 564
2.6403477 -11.610687 3.3559117 323
4.9469166 -18.537752 5.2128458 98
1.6373348 -10.92753 2.9049704 635
2.1785619 -11.572261 2.9687381 603
2.6687558 -11.764094 2.9183488 363
3.1074193 -11.677258 2.8052831 399
1.6377413 -10.930243 2.4704723 671
2.1369638 -11.373132 2.4660709 205
2.5950117 -11.45756 2.3879726 350
3.015733 -11.364635 2.2748687 341
1.6365685 -10.909423 2.0425751 689
2.0870328 -11.107393 1.9806052 274
2.5889459 -11.458623 1.942672 380
3.0014918 -11.342904 1.828995 758
1.6340562 -10.892675 1.6264886 706
2.0718617 -11.037265 1.5463122 519
2.5885367 -11.466122 1.5078944 934
2.9977045 -11.360657 1.394804 504
1.6327742 -10.88413 1.2170091 642
2.0282645 -10.815423 1.1119212 575
2.6217353 -11.64155 1.0922986 550
3.0432208 -11.549496 0.98195112 493
1.6296743 -10.876404 0.81534904 631
2.0199087 -10.791659 0.70998448 667
2.6180472 -11.644136 0.65890259 506
3.0383317 -11.539114 0.54810882 424
1.62428 -10.853328 0.41391361 677
2.0145891 -10.784053 0.31026947 625
2.6098335 -11.626566 0.22463571 526
3.0305238 -11.533984 0.11239824 481
1.6188359 -10.842806 0.017220633 807
2.0077596 -10.757895 -0.087863125 634
2.5939801 -11.58432 -0.20721242 478
3.0153658 -11.484448 -0.31921929 421
1.612913 -10.842003 -0.38277769 726
2.003278 -10.77559 -0.48620012 717
1.2336738 -5.5093994 -0.30379087 285
1.3441461 -5.1230111 -0.33507812 57
0.76247066 -5.1314821 -0.37004736 85
0.90956968 -4.9020777 -0.40289542 216
1.0671424 -4.7774248 -0.4411875 265
0 -0 -0 6
0.69839352 -4.7229161 -0.51527995 88
1.158507 -6.2558856 -0.74739277 40
0 -0 -0 8
1.1432848 -4.3667712 -0.61753237 596
0.6594786 -4.48137 -0.65676576 491
0.80576509 -4.3595939 -0.68474698 670
0.93873924 -4.2198906 -0.71024996 451
1.0879254 -4.1612544 -0.74989182 595
0.62394309 -4.255362 -0.7854768 728
0.76812327 -4.1722288 -0.81541151 749
0.90641743 -4.0779529 -0.84460306 701
1.022595 -3.9113691 -0.85859352 52
0.57872272 -3.9710937 -0.88746572 35
0.69786906 -3.8018057 -0.89238089 221
0.81020904 -3.648119 -0.90062553 257
0.91124219 -3.4854507 -0.90691626 273
0.51434332 -3.5510466 -0.93529946 255
0.62369937 -3.4145257 -0.93980366 323
0.72971106 -3.2910891 -0.94881958 321
0.83925593 -3.2078192 -0.97086102 380
1.565766 -10.946854 3.3618662 610
1.9812911 -10.88075 3.2382638 569
2.5700946 -11.63137 3.3572681 409
5.0239019 -19.300867 5.418664 19
1.5710787 -10.943115 2.9064963 658
1.9775305 -10.870862 2.7856364 653
2.5927567 -11.763163 2.9141164 344
3.0396259 -11.711191 2.8089013 407
1.5710597 -10.942984 2.4711266 657
1.9715744 -10.859647 2.3520629 696
2.5200274 -11.45221 2.3835902 348
2.9427462 -11.370568 2.2723994 350
1.5687593 -10.913419 2.0414827 684
1.9679905 -10.839907 1.9307189 653
2.5188 -11.475257 1.9428352 371
2.9347992 -11.372588 1.8308433 723
1.5670484 -10.901517 1.6263424 748
1.9662662 -10.841173 1.5171211 681
2.5136712 -11.461443 1.5052224 906
2.9306624 -11.389416 1.3961006 455
1.5677983 -10.906733 1.2184378 709
1.9584939 -10.809064 1.110011 635
2.5481265 -11.64769 1.091387 551
2.9698172 -11.558298 0.98113179 473
1.564608 -10.898045 0.81623626 706
1.9550748 -10.811706 0.71050072 665
2.5486813 -11.669735 0.65945381 574
2.9662297 -11.552702 0.54787934 455
1.5593567 -10.87496 0.41436589 671
1.9471388 -10.789326 0.31007159 644
2.5392973 -11.646269 0.22471112 576
2.9569659 -11.541706 0.11229458 475
1.5532664 -10.859465 0.017231628 748
1.9434868 -10.779854 -0.087943405 655
2.5296509 -11.631283 -0.20777091 561
2.9443462 -11.500797 -0.31916556 444
1.5487542 -10.868515 -0.383371 703
1.9341209 -10.770963 -0.48544672 696
1.199209 -5.513938 -0.3036297 288
1.3144181 -5.1379304 -0.33552009 59
0.73349994 -5.1538391 -0.37132806 91
0.88088053 -4.9154153 -0.40353978 226
1.0416092 -4.8014026 -0.4428032 266
0 -0 -0 7
0 -0 -0 9
1.1188759 -6.2560325 -0.74657607 128
0 -0 -0 0
1.1162243 -4.3727441 -0.61739683 483
0.63293552 -4.4921918 -0.65777022 589
0.78143108 -4.3780766 -0.68688393 672
0.91782951 -4.2487197 -0.71414089 637
1.060912 -4.1621237 -0.74886125 630
0.59918833 -4.2688527 -0.78727347 677
0.74268037 -4.1778302 -0.81560028 759
0.88137853 -4.0834374 -0.84460306 620
1.002925 -3.9346316 -0.86233276 58
0.55677342 -3.991977 -0.89135247 35
0.67418844 -3.8040972 -0.89193094 187
0.79026866 -3.6644256 -0.90343702 247
0.89127588 -3.4966147 -0.90838099 269
0.49028668 -3.5378411 -0.93101144 260
0.60525066 -3.4325469 -0.94372386 311
0.7090984 -3.2936227 -0.94827771 331
0.82050616 -3.2166281 -0.97198498 421
1.4986975 -10.957204 3.3621571 607
1.9153215 -10.897428 3.2396691 674
2.4992831 -11.649744 3.3580821 508
5.2215338 -20.577244 5.7679 16
1.5039034 -10.952549 2.9064963 626
1.9097848 -10.877061 2.7841699 664
2.5166662 -11.760792 2.9096487 361
2.9677103 -11.729622 2.8089013 415
1.5033543 -10.94855 2.4702542 643
1.9057479 -10.876357 2.3531051 705
2.449301 -11.465541 2.3831918 356
2.8722022 -11.385555 2.2718296 350
1.5016325 -10.921865 2.0413008 678
1.9011011 -10.849837 1.9303737 677
2.44608 -11.479881 1.9410405 385
2.8666501 -11.397089 1.8319215 658
1.5006673 -10.914846 1.6269267 710
1.8991964 -10.850106 1.5167118 707
2.4424715 -11.47277 1.5047134 830
2.8650711 -11.424521 1.3982227 539
1.5009817 -10.917132 1.2185477 725
1.8947045 -10.835579 1.1115191 660
2.4753687 -11.657261 1.0908401 593
2.896904 -11.568569 0.98047626 462
1.4985234 -10.913367 0.81667984 657
1.8873264 -10.815634 0.70998448 653
2.4706104 -11.654874 0.65774494 538
2.8950453 -11.569715 0.54783344 450
1.4945005 -10.898184 0.41489354 663
1.881929 -10.806979 0.31024122 639
2.4644773 -11.645979 0.22440952 564
2.8858492 -11.558662 0.11228514 519
1.4868757 -10.870772 0.017234771 738
1.8803911 -10.809309 -0.088087916 712
2.456583 -11.638759 -0.20763129 599
2.875417 -11.525436 -0.31935367 485
1.4824419 -10.880785 -0.38347569 713
1.8685067 -10.785582 -0.4855797 733
1.1661783 -5.5251002 -0.3038446 293
1.2693485 -5.0916705 -0.33198431 45
0.69702137 -5.1226616 -0.36876667 67
0.84764707 -4.9030485 -0.40208992 226
1.0063839 -4.7804146 -0.44028986 257
0 -0 -0 5
0.63118184 -4.6631494 -0.50787592 50
1.0819881 -6.2715888 -0.74762613 135
1.2922965 -6.1491728 -0.79824764 14
0 -0 -0 4
0.59281445 -4.4028149 -0.64413846 44
0.75589448 -4.3905811 -0.68810511 638
0.89558893 -4.2726212 -0.7172212 622
1.037491 -4.1771603 -0.7504071 639
0.57442218 -4.2831736 -0.78924972 612
0.72101432 -4.2055383 -0.82013035 809
0.85590464 -4.0868502 -0.84420675 681
0.97522682 -3.9264712 -0.85921669 62
0.52607948 -3.9488611 -0.88098794 35
0.66084701 -3.8667493 -0.90565294 198
0.76677376 -3.6644475 -0.90226555 240
0.86933672 -3.5001352 -0.9078927 241
0.46818879 -3.537905 -0.9302547 270
0.58433932 -3.4371479 -0.94398522 290
0.69163126 -3.3111033 -0.95207083 301
0.80052233 -3.2206707 -0.97170401 393
1.4304464 -10.958603 3.3598301 571
1.848901 -10.911814 3.2405121 656
2.4263818 -11.658263 3.3561831 544
5.1977792 -21.023903 5.8840499 17
1.4378026 -10.970201 2.9087846 630
1.8430085 -10.888575 2.7841699 673
2.443666 -11.772206 2.9087081 360
2.8917196 -11.731532 2.8050568 422
1.4357665 -10.954665 2.4695997 639
1.8389759 -10.887846 2.3531051 697
2.380892 -11.48995 2.3851838 331
2.8032248 -11.406778 2.2725894 352
1.4375317 -10.953298 2.0454881 680
1.8339998 -10.858384 1.9298558 654
2.3718007 -11.476316 1.9379405 360
2.7943137 -11.404867 1.8303812 555
1.4348255 -10.932677 1.6282415 718
1.8294542 -10.842996 1.5141201 686
2.3738353 -11.496284 1.5058587 788
2.7972739 -11.451532 1.3994014 541
1.4335791 -10.923181 1.218218 689
1.8306632 -10.861716 1.1130271 692
2.4029908 -11.668328 1.0904754 599
2.825866 -11.586126 0.98047626 462
1.4298472 -10.909503 0.81571871 652
1.8202653 -10.823074 0.70972633 670
2.39885 -11.668837 0.65768981 599
2.8230543 -11.58338 0.54764992 501
1.4266945 -10.900212 0.41462973 689
1.8159142 -10.820294 0.31029776 646
2.3967912 -11.679491 0.22476764 591
2.8096743 -11.554775 0.1120778 505
1.421052 -10.886632 0.017245766 710
1.8138658 -10.819657 -0.088079892 695
2.3803113 -11.630104 -0.20721242 625
2.8003957 -11.525378 -0.31886992 502
1.4128163 -10.867872 -0.38270789 665
1.802786 -10.799799 -0.48571265 727
1.1328557 -5.5350871 -0.3040058 276
1.2272513 -5.0547509 -0.32907993 54
0.66840136 -5.1486039 -0.37033197 63
0.81820172 -4.9120903 -0.40241215 212
0.97324818 -4.7679586 -0.43858433 245
0 -0 -0 4
0.61872572 -4.7921615 -0.52150369 26
1.0462543 -6.294765 -0.74960953 141
0 -0 -0 11
0 -0 -0 5
0 -0 -0 12
0.72425085 -4.3668623 -0.68367845 77
0.87092781 -4.2857718 -0.71851814 627
1.0123041 -4.1853623 -0.7507506 641
0.54775602 -4.28369 -0.78871077 643
0.69519603 -4.2098832 -0.82013035 804
0.82944691 -4.0853009 -0.84281951 666
0.94996631 -3.9276273 -0.85817796 165
0 -0 -0 6
0.62919623 -3.8226597 -0.89440542 194
0.7435016 -3.6652725 -0.90132838 220
0.85741895 -3.5449913 -0.9181459 245
0.45034575 -3.5714331 -0.93832636 243
0.56152308 -3.4301901 -0.94111037 276
0.67225689 -3.3200018 -0.95342547 285
0.78255183 -3.2329841 -0.973952 368
1.365539 -10.986162 3.3656473 591
1.7820672 -10.923901 3.2407932 692
2.3538506 -11.668215 3.3548267 584
5.0661969 -21.04508 5.881166 27
1.3701042 -10.975937 2.9080217 606
1.7763187 -10.900635 2.7844143 670
2.3744543 -11.802224 2.9124703 346
2.8160446 -11.733899 2.8014386 400
1.368402 -10.962301 2.4693816 684
1.7708789 -10.891201 2.3514376 718
2.3140123 -11.522597 2.3889687 331
2.7329528 -11.422809 2.2723994 379
1.3704184 -10.962887 2.04567 661
1.768288 -10.875267 1.9308916 663
2.302695 -11.497425 1.9390826 393
2.7178633 -11.394887 1.8260686 446
1.3673488 -10.938331 1.6278033 680
1.7636825 -10.858906 1.5148021 678
2.3057806 -11.523276 1.5075127 642
2.7271857 -11.469446 1.3995193 672
1.3661588 -10.928812 1.2178882 713
1.7603179 -10.850157 1.1107148 654
2.3311553 -11.681876 1.0903844 659
2.7565634 -11.611005 0.98113179 510
1.3628808 -10.918071 0.81571871 642
1.7533436 -10.831084 0.7095328 636
2.3242803 -11.668647 0.65686297 662
2.7505434 -11.594652 0.54737461 507
1.3595381 -10.906778 0.41455433 687
1.7506036 -10.83814 0.31049564 680
2.2979805 -11.55767 0.22214772 765
2.7359591 -11.560121 0.1119647 513
1.3537327 -10.891177 0.017239483 726
1.7458507 -10.820711 -0.087999605 649
2.2832358 -11.515031 -0.20490871 1074
2.7319252 -11.552073 -0.31913868 492
1.3459829 -10.875344 -0.382673 684
1.7371194 -10.814603 -0.48588991 778
1.1029502 -5.5625029 -0.30513415 261
1.2014915 -5.0845246 -0.3305321 47
0.64768606 -5.2407122 -0.37666422 43
0.79041231 -4.9317808 -0.40362033 205
0.9455198 -4.7816567 -0.43930244 270
0 -0 -0 5
0.5834896 -4.7485013 -0.51635307 13
0.86630994 -5.4174457 -0.64448917 17
0 -0 -0 6
0 -0 -0 4
0 -0 -0 6
0.84957516 -5.3247151 -0.83280861 21
0.84499556 -4.2929716 -0.71884239 639
0.96042103 -4.0802584 -0.73082674 102
0.52383715 -4.3065009 -0.79230398 678
0.6688894 -4.2111597 -0.81956404 731
0.80474257 -4.092237 -0.84321582 653
0.92853844 -3.9448082 -0.86067086 211
0 -0 -0 5
0.60390085 -3.8148999 -0.89170605 176
0.7264331 -3.6974294 -0.9081229 214
0.8314296 -3.5322504 -0.91350752 237
0.42796269 -3.5702858 -0.93731737 262
0.54166597 -3.4411993 -0.94320118 254
0.65316981 -3.3306766 -0.95532209 288
0.76071948 -3.2293179 -0.97142303 386
1.2986645 -10.999085 3.3671017 571
1.7150059 -10.934629 3.2407932 683
2.2766752 -11.654099 3.3466887 553
4.6182723 -19.715254 5.5015159 63
1.3023897 -10.981256 2.907259 589
1.7077494 -10.900791 2.7817252 658
2.2575731 -11.588559 2.8562713 439
2.7437725 -11.75001 2.8012125 396
1.3024921 -10.982121 2.4719994 680
1.7056798 -10.912491 2.3537302 722
2.2427063 -11.533692 2.388371 335
2.6568024 -11.413545 2.2672708 317
1.301734 -10.959373 2.0434854 653
1.7027422 -10.893697 1.9322724 699
2.2285364 -11.492935 1.9359827 381
2.6423109 -11.387286 1.8222181 354
1.3013735 -10.956339 1.6292641 705
1.69809 -10.876374 1.515757 709
2.2344658 -11.534286 1.5071309 820
2.6556401 -11.481127 1.39893 732
1.3023578 -10.964624 1.2209656 720
1.694476 -10.865669 1.1112174 630
2.2292113 -11.539519 1.0757997 1011
2.6866133 -11.633527 0.98162335 544
1.2969203 -10.935141 0.81638408 646
1.688233 -10.850513 0.71011358 641
2.213129 -11.477781 0.64534193 978
2.6820436 -11.622992 0.54792529 532
1.2959977 -10.943693 0.41564736 697
1.6839156 -10.84769 0.31046736 672
2.1818607 -11.336902 0.21764295 824
2.6681168 -11.590334 0.11209666 539
1.2868803 -10.899279 0.017239483 693
1.6785039 -10.825292 -0.087951437 684
2.1279259 -11.087938 -0.19707258 636
2.6643527 -11.58323 -0.31954178 550
1.2802777 -10.892332 -0.38298711 667
1.6705772 -10.824071 -0.48584557 748
1.0665401 -5.5573978 -0.30448937 241
1.180554 -5.1365433 -0.33343649 51
0.61795908 -5.2653913 -0.37815836 56
0.76483911 -4.9670773 -0.40611729 177
0.91766 -4.7951946 -0.44002059 244
0 -0 -0 4
0 -0 -0 4
0.83380681 -5.427568 -0.64507252 14
1.1807528 -6.1816626 -0.79950792 73
0 -0 -0 6
0 -0 -0 6
0.67270428 -4.3890972 -0.68581545 507
0.8180846 -4.2951674 -0.71835601 639
0.95691007 -4.1801844 -0.74765897 627
0.49807984 -4.3154979 -0.79338193 702
0.64466673 -4.2258635 -0.82164037 799
0.78163344 -4.1076894 -0.84539574 681
0.90933645 -3.9723625 -0.86544895 319
0 -0 -0 8
0.59087884 -3.8869283 -0.90767759 167
0.70827144 -3.7256939 -0.91398031 227
0.80627817 -3.5221608 -0.90960157 278
0.40659413 -3.577652 -0.93857861 237
0.51881015 -3.4330051 -0.94006497 276
0.6329003 -3.3355675 -0.95559299 283
0.74003309 -3.2301826 -0.97029901 387
1.2325335 -11.019208 3.3708832 603
1.64788 -10.944947 3.2407932 685
2.1917188 -11.596917 3.3263433 614
4.4920712 -19.720638 5.4952235 49
1.2366055 -11.003457 2.911073 604
1.6418406 -10.917777 2.7834365 691
2.1822848 -11.580225 2.8508632 644
2.6696827 -11.758074 2.7991772 392
1.2360635 -10.998634 2.4739625 694
1.6394155 -10.927588 2.3547723 708
2.1331301 -11.34114 2.3457429 247
2.5856366 -11.424844 2.2663209 338
1.2357837 -10.978878 2.04567 613
1.6367445 -10.909784 1.9333082 696
2.0457664 -10.908092 1.8353169 379
2.5747819 -11.413888 1.8239124 311
1.2350074 -10.971981 1.6304327 692
1.6330836 -10.898346 1.5173939 750
2.0273836 -10.820498 1.4122117 505
2.5831828 -11.488486 1.397869 857
1.2356114 -10.977348 1.2215152 742
1.6279209 -10.876846 1.111318 660
2.0204716 -10.814889 1.0070696 660
2.6134343 -11.642013 0.98096782 554
1.2322493 -10.964694 0.81801063 687
1.6242763 -10.878433 0.7112751 659
2.0074062 -10.76577 0.60460496 649
2.6089265 -11.631431 0.54755819 515
1.2290469 -10.953425 0.41572273 725
1.6176183 -10.859795 0.3105239 705
2.0092697 -10.796677 0.20703126 676
2.5980411 -11.611365 0.11214378 587
1.2217578 -10.922871 0.017264616 705
1.6132267 -10.843299 -0.088015661 720
2.0011132 -10.784239 -0.19145291 657
2.5908301 -11.58863 -0.31924617 539
1.215078 -10.914882 -0.38351059 675
1.6050085 -10.840047 -0.48611149 745
1.0440801 -5.6266723 -0.30792812 218
1.1483619 -5.1407685 -0.3332471 34
0.59357303 -5.3404622 -0.38328111 175
0.73784286 -4.9953423 -0.40805045 203
0.8914814 -4.8183627 -0.44163629 242
0 -0 -0 6
0 -0 -0 5
0.79310441 -5.3824711 -0.63912231 16
1.1537889 -6.2482986 -0.80719548 176
0 -0 -0 11
0.68677485 -6.2585945 -0.91290015 201
0.64964122 -4.4195423 -0.68993676 639
0.78974909 -4.2894311 -0.7165727 541
0.93530762 -4.204248 -0.75092238 560
0.4693484 -4.297936 -0.78960901 522
0.61872518 -4.2297397 -0.82164037 807
0.75570512 -4.108552 -0.84460306 686
0.89004338 -4.0007834 -0.87043464 511
0 -0 -0 5
0.56687748 -3.8895166 -0.90745264 170
0.68328929 -3.7184956 -0.91116875 224
0.78738904 -3.5393476 -0.91277516 234
0.38515127 -3.5848899 -0.93983972 252
0.50423956 -3.4810219 -0.95234835 281
0.61710995 -3.3649516 -0.96290827 308
0.72061634 -3.2365363 -0.97086102 388
1.1660033 -11.037029 3.3740826 610
1.580829 -10.955801 3.2410741 700
1.9882253 -10.885814 3.1188197 623
4.3701487 -19.744061 5.4941745 30
1.1691685 -11.0118 2.9113271 573
1.5752344 -10.930525 2.7841699 678
1.9772804 -10.858052 2.6700387 697
2.593919 -11.758063 2.7953329 365
1.1689661 -11.009892 2.4748352 703
1.57303 -10.942282 2.3558145 668
1.9732589 -10.857469 2.2431564 744
2.5194924 -11.458713 2.2699301 327
1.1698512 -10.999944 2.0482192 623
1.5703331 -10.923522 1.9339987 730
1.9663074 -10.851513 1.823733 681
2.506391 -11.437192 1.8251444 288
1.167766 -10.980337 1.6305789 678
1.566041 -10.90718 1.5172575 725
1.9597155 -10.825903 1.4113209 680
2.5137017 -11.508971 1.3984585 951
1.1681274 -10.983735 1.2214054 722
1.5614337 -10.888599 1.1115191 689
1.9563742 -10.839823 1.0082546 670
2.5368555 -11.634459 0.9790014 582
1.1657903 -10.979982 0.81860209 709
1.5576383 -10.889183 0.71133965 715
1.944851 -10.797539 0.60570747 674
2.5366578 -11.643316 0.54737461 572
1.1610776 -10.953805 0.41545892 683
1.5508122 -10.868527 0.31049564 724
1.9428079 -10.807818 0.20701243 678
2.5282326 -11.633928 0.11220974 657
1.1554488 -10.937122 0.017275611 715
1.548215 -10.863883 -0.08810398 765
1.9349048 -10.796314 -0.19145291 694
2.5211596 -11.611147 -0.31943429 581
1.1477692 -10.919149 -0.38340586 658
1.5387454 -10.851669 -0.48620012 751
1.0114735 -5.6437845 -0.30851912 254
1.10791 -5.1067543 -0.33059525 41
0.60222572 -5.7388272 -0.41159853 215
0.70829481 -5.0076709 -0.4086948 166
0.86382675 -4.834527 -0.4426237 261
0 -0 -0 5
0 -0 -0 4
0.7639482 -5.414772 -0.64238906 14
1.1157768 -6.2572141 -0.80744755 185
1.363569 -6.3010993 -0.88197613 14
0.49732727 -4.8038239 -0.70024401 21
0.62388843 -4.4332318 -0.69146317 638
0.759615 -4.2728229 -0.71300608 184
0.91198963 -4.2214627 -0.75298345 681
0.44377428 -4.3085637 -0.79104632 381
0.59344119 -4.2383189 -0.82258415 805
0.73408055 -4.133378 -0.8487646 698
0.86361933 -3.9975641 -0.86856502 526
0 -0 -0 5
0.54367417 -3.8977463 -0.90857732 163
0.65655416 -3.7006023 -0.90577996 213
0.76750022 -3.5526433 -0.91497231 224
0.36480442 -3.6035526 -0.94412786 267
0.47955811 -3.4601476 -0.94581461 249
0.59578007 -3.3648834 -0.96182454 288
0.70196068 -3.2465253 -0.97254705 375
1.1005318 -11.066826 3.3810635 639
1.5142318 -10.970049 3.2424791 741
1.9190542 -10.884539 3.1150219 777
4.2566242 -19.806356 5.504138 42
1.1037921 -11.0409 2.9171753 605
1.5099902 -10.953433 2.7875924 732
1.9114608 -10.874766 2.6712146 709
2.5215201 -11.772804 2.7951066 360
1.101777 -11.020743 2.4757078 685
1.5059931 -10.952697 2.3560231 691
1.9066015 -10.869372 2.2431564 732
2.4552841 -11.502761 2.2756286 367
1.1022367 -11.005937 2.0480371 608
1.5036807 -10.93588 1.9345165 713
1.8983271 -10.855598 1.8224276 722
2.4351387 -11.447523 1.8243743 277
1.1009613 -10.993201 1.6314553 709
1.4990863 -10.916584 1.5172575 732
1.8939347 -10.841632 1.4118298 687
2.4424188 -11.521263 1.3981048 1004
1.0995219 -10.978827 1.2200865 710
1.496756 -10.913747 1.1131276 691
1.8881168 -10.841812 1.0073431 690
2.4650071 -11.647856 0.97883743 594
1.0975037 -10.977999 0.81793672 690
1.4907942 -10.898536 0.71133965 687
1.8804425 -10.820089 0.60631382 649
2.4672344 -11.668434 0.54783344 584
1.093646 -10.958735 0.41538355 684
1.4867976 -10.897646 0.31106105 690
1.8766266 -10.82052 0.20703126 675
2.4557691 -11.644331 0.11216263 629
1.0892087 -10.952963 0.01728975 676
1.4824713 -10.880115 -0.08816018 717
1.8684531 -10.806998 -0.19143546 683
2.4511042 -11.632266 -0.31959555 662
1.0813394 -10.931954 -0.38361529 626
1.4718635 -10.858927 -0.48611149 672
0.98277909 -5.6843233 -0.31039971 247
1.0716202 -5.0900183 -0.32907993 47
1.0794102 -10.93193 -0.78356689 638
0.67648673 -5.0040207 -0.40805045 167
0.83397722 -4.8387547 -0.44253394 253
0 -0 -0 4
0.47230899 -4.8177915 -0.52246946 213
0.84630114 -6.2766519 -0.74400932 50
1.0746717 -6.2482996 -0.80543113 135
0 -0 -0 7
0.44512117 -4.5733409 -0.66623628 35
0.59654319 -4.435997 -0.69131052 674
0.74155402 -4.3250594 -0.72094995 537
0.88384676 -4.216373 -0.7510941 655
0.42036214 -4.3425384 -0.79679549 672
0.56573159 -4.2292271 -0.82013035 729
0.70622283 -4.123313 -0.84579206 646
0.84369022 -4.0248075 -0.87334305 636
0 -0 -0 8
0.51949048 -3.8990774 -0.90812743 164
0.63301557 -3.69977 -0.90460855 202
0.74528927 -3.5553875 -0.91448408 236
0.34360212 -3.6153564 -0.94665021 260
0.46059754 -3.4802489 -0.95051885 265
0.5723682 -3.3523452 -0.95721865 274
0.68261832 -3.2535889 -0.97339004 366
1.0317179 -11.063844 3.3781548 619
1.4466417 -10.97723 3.2419171 714
1.8506187 -10.88662 3.1123092 751
4.1399388 -19.855719 5.5106926 46
1.035845 -11.045539 2.9166667 615
1.4424998 -10.960569 2.7871034 699
1.8448609 -10.887249 2.6714499 704
2.4522085 -11.802361 2.7984989 361
1.0350454 -11.037012 2.4778891 689
1.4387603 -10.961732 2.3560231 645
1.8388921 -10.875069 2.2419612 731
2.3844593 -11.516648 2.2754388 369
1.0346849 -11.012492 2.0480371 616
1.4374484 -10.951736 1.9357249 710
1.8316827 -10.867042 1.8224276 711
2.365052 -11.463218 1.8245285 286
1.0343206 -11.008615 1.6327702 694
1.4328477 -10.931471 1.5180759 717
1.8283641 -10.858917 1.4125932 670
2.3702798 -11.529224 1.3972796 1088
1.0329732 -10.994274 1.2210757 706
1.4300206 -10.924698 1.1133287 693
1.819744 -10.84239 1.0063404 655
2.3950937 -11.670572 0.97949296 634
1.0298439 -10.981547 0.81771487 652
1.4237647 -10.906487 0.7112751 703
1.8146759 -10.835362 0.6065343 670
2.3927827 -11.669653 0.54719108 607
1.0276877 -10.979168 0.4159112 661
1.4220967 -10.923415 0.31154165 720
1.8101978 -10.831832 0.20703126 640
2.3858771 -11.667017 0.11223802 685
1.0236534 -10.977362 0.017318023 738
1.4156843 -10.889006 -0.08816018 680
1.8027647 -10.822205 -0.19150527 703
2.3736806 -11.617705 -0.3187893 736
1.0155336 -10.952315 -0.38410386 636
1.4055909 -10.870726 -0.48624441 679
0.95247638 -5.7178259 -0.31190413 231
1.0601298 -5.1933036 -0.33533069 47
1.0127724 -10.943313 -0.78392267 621
0.64475012 -5.0001683 -0.40740603 149
0.80378205 -4.8408332 -0.44226465 220
0 -0 -0 4
0.44319332 -4.8255486 -0.52300596 29
0.80853242 -6.2876368 -0.74470937 113
0 -0 -0 11
0 -0 -0 8
0 -0 -0 11
0.57233012 -4.4631 -0.69497395 657
0.71548444 -4.332449 -0.72143632 596
0.8591361 -4.2275095 -0.75212467 659
0.39424151 -4.350914 -0.79787338 654
0.53989506 -4.2335925 -0.82031912 698
0.67947352 -4.118865 -0.84400856 653
0.81975788 -4.0337429 -0.87417406 636
0.36895216 -4.1117382 -0.91294527 21
0.4911373 -3.867394 -0.90002924 171
0.61899602 -3.7563419 -0.91749465 206
0.7236529 -3.5608439 -0.91472816 240
0.32141224 -3.6173966 -0.94665021 248
0.4364568 -3.4609835 -0.9445079 269
0.55085075 -3.3500948 -0.95559299 249
0.66378963 -3.2633591 -0.97507608 358
0.96406102 -11.072825 3.3790276 611
1.3794985 -10.987804 3.2424791 722
1.7844067 -10.901568 3.1133943 761
2.3072405 -11.415963 3.1643612 24
0.96771383 -11.047833 2.9156499 605
1.3755816 -10.972099 2.7878366 710
1.7773972 -10.894526 2.6705091 706
2.3816674 -11.826734 2.80076 365
0.96687824 -11.038294 2.4767983 692
1.3734145 -10.985881 2.3593578 669
1.7692952 -10.868737 2.2383757 692
2.3114316 -11.519511 2.2731593 356
0.96778184 -11.02647 2.0494936 651
1.3702227 -10.96035 1.9357249 708
1.7654433 -10.880998 1.8229171 749
2.2964137 -11.486234 1.8259145 282
0.96753192 -11.023623 1.6340848 659
1.3664827 -10.945954 1.5188943 731
1.762018 -10.871889 1.4128478 683
2.2985232 -11.538681 1.3966901 1111
0.96627623 -11.009316 1.2220647 722
1.3634533 -10.937216 1.1137308 697
1.7542938 -10.860233 1.0069784 644
2.3211069 -11.673318 0.97850972 661
0.96348721 -10.99958 0.81860209 654
1.3570632 -10.916999 0.7114042 723
1.7475218 -10.842351 0.60631382 646
2.3065357 -11.61063 0.54374963 779
0.96151978 -10.999204 0.41643885 691
1.3525859 -10.912095 0.31097627 724
1.7432247 -10.839774 0.20697473 722
2.2849014 -11.533322 0.1108149 1034
0.95593137 -10.979451 0.017311741 663
1.3476156 -10.887563 -0.088079892 674
1.7336369 -10.816278 -0.19120857 712
2.26722 -11.45456 -0.31392497 1666
0.94994938 -10.977258 -0.38476697 595
1.3377647 -10.870221 -0.48584557 707
0.92337978 -5.7610297 -0.31394589 212
1.0381182 -5.2496424 -0.33855078 35
0.94612139 -10.955283 -0.78434956 606
0.62170595 -5.0663581 -0.4124805 125
0.77610648 -4.8584595 -0.44343156 223
0.92589301 -4.6907353 -0.47723141 24
0.75137776 -8.7717505 -0.95018834 81
0.7744 -6.3289547 -0.74902612 115
0.85676068 -5.3754029 -0.69150376 27
0 -0 -0 7
0.38670382 -4.5518341 -0.66236198 240
0.54385704 -4.4576983 -0.69360012 591
0.68981636 -4.3426051 -0.72240907 621
0.83318043 -4.2327013 -0.75212467 675
0.36579943 -4.3326659 -0.79410052 432
0.51485407 -4.2446246 -0.82182914 673
0.65188384 -4.1084361 -0.84103602 145
0.7936694 -4.0319786 -0.87271982 730
0.33948871 -4.0633278 -0.90171701 46
0.46517852 -3.8519549 -0.89575511 174
0.59030527 -3.7245426 -0.90882581 183
0.70047933 -3.5585568 -0.91301936 205
0.29865217 -3.61255 -0.94488454 252
0.41923353 -3.4971399 -0.95365506 246
0.53253984 -3.3676734 -0.95965701 269
0.64764941 -3.2871442 -0.98097706 339
0.89694977 -11.089022 3.3822269 639
1.3113704 -10.990345 3.2407932 686
1.7209243 -10.934181 3.1196337 763
2.2382624 -11.435589 3.1659346 171
0.90022129 -11.057419 2.9166667 634
1.3090352 -10.987073 2.7895479 692
1.7112693 -10.910028 2.6716847 710
2.25014 -11.539001 2.7292995 559
0.89968473 -11.050829 2.4783256 673
1.3062112 -10.996043 2.3597746 685
1.7086332 -10.918116 2.2463436 742
2.2363992 -11.51131 2.2687902 343
0.90058619 -11.03808 2.050586 667
1.3037587 -10.975398 1.9369332 703
1.7000139 -10.900399 1.8243855 756
2.2243903 -11.492347 1.8246824 310
0.90011531 -11.03231 1.634523 630
1.3004608 -10.96397 1.5202584 722
1.6951236 -10.881516 1.4127206 650
2.2248595 -11.537941 1.3949218 953
0.89870614 -11.015038 1.2220647 701
1.295499 -10.938459 1.1130271 683
1.6882346 -10.874729 1.0073431 650
2.2093155 -11.478882 0.96105677 914
0.89670521 -11.014231 0.81926751 670
1.2904032 -10.928094 0.7115978 698
1.6821841 -10.860763 0.60675484 687
2.1760213 -11.316538 0.5293414 766
0.89417362 -11.006888 0.41651422 648
1.2857219 -10.921182 0.31100452 678
1.675306 -10.841373 0.20680508 675
2.1116533 -11.012881 0.1056879 631
0.88862532 -10.986107 0.017313311 631
1.2814859 -10.901586 -0.08812806 663
1.6664759 -10.821772 -0.19112131 729
2.0656178 -10.782969 -0.29516631 594
0.88225615 -10.978895 -0.38462737 548
1.2725484 -10.891125 -0.4864217 685
0.89819592 -5.8327107 -0.31754583 229
1.0165803 -5.3117852 -0.34214967 38
0.87912244 -10.963865 -0.784563 598
0 -0 -0 12
0.74612987 -4.8621459 -0.44334179 230
0.89840066 -4.7031703 -0.47792667 34
0.70581239 -8.8802605 -0.96145535 619
0 -0 -0 12
0.82211024 -5.369772 -0.69011748 28
0 -0 -0 10
0.35822296 -4.547215 -0.66135752 25
0.51478994 -4.4462261 -0.69131052 355
0.66122299 -4.3340745 -0.72030151 637
0.80848366 -4.2445083 -0.75332695 652
0.33897758 -4.3318872 -0.79356158 210
0.49115738 -4.2681913 -0.82579291 660
0.80651075 -5.2925782 -1.0824078 42
0.76909775 -4.0377336 -0.87292761 692
0.31462553 -4.0663075 -0.9019329 84
0.4424217 -3.8624811 -0.89755476 215
0.56451505 -3.7088726 -0.90413994 203
0.67953849 -3.5675509 -0.91423994 227
0.27773508 -3.630717 -0.94917262 277
0.39972973 -3.5169096 -0.95835924 276
0.51042098 -3.3613608 -0.95694762 288
0.62746769 -3.2910562 -0.98097706 360
0.8296048 -11.103858 3.3851357 634
1.2452044 -11.009627 3.2441649 693
1.6520753 -10.933115 3.1163783 724
2.1987555 -11.611243 3.2107687 669
0.83308291 -11.072379 2.9192095 631
1.2423568 -11.001643 2.7912591 670
1.6451628 -10.92609 2.6730957 696
2.1800182 -11.55642 2.7302041 659
0.83178794 -11.055167 2.4781075 623
1.2375127 -10.99316 2.357482 682
1.6400075 -10.917734 2.2441525 718
2.0861239 -11.101222 2.1854012 290
0.83291483 -11.044379 2.0507681 643
1.2370515 -10.989063 1.9379689 682
1.6335365 -10.913552 1.824875 733
2.0292969 -10.840509 1.7191783 502
0.83255428 -11.039598 1.6348153 637
1.233052 -10.970758 1.5201219 710
1.6306704 -10.907408 1.4147563 705
2.0178599 -10.821178 1.3067447 679
0.83110225 -11.020345 1.2220647 651
1.2302437 -10.963011 1.1147362 713
1.6217701 -10.886853 1.0075253 673
2.0121043 -10.811253 0.90410954 699
0.82940567 -11.023504 0.81956327 643
1.2246567 -10.947706 0.71237218 699
1.6121362 -10.848164 0.60548693 635
2.0048318 -10.782639 0.50378287 698
0.82721823 -11.02014 0.41681576 657
1.2203484 -10.943767 0.31142858 714
1.6105125 -10.863317 0.20703126 674
1.9975594 -10.774915 0.10328462 662
0.82261473 -11.0103 0.017343156 626
1.2163413 -10.925145 -0.088256523 722
1.6036961 -10.856522 -0.19155763 703
1.9955928 -10.774798 -0.29460195 719
0.81517005 -10.988089 -0.38476697 579
1.206247 -10.903693 -0.48664331 673
0.86954027 -5.8865156 -0.3201786 192
0.98233455 -5.3090906 -0.34158143 39
0.8118329 -10.969053 -0.784563 562
0.56210923 -5.097384 -0.41441363 60
0.71352679 -4.8479109 -0.44163629 231
0.86573094 -4.6880455 -0.47584096 67
0.65080202 -8.8774834 -0.96070421 653
0 -0 -0 12
0.78914642 -5.3747153 -0.69011748 26
1.1426797 -6.1938119 -0.86164469 205
0.60788286 -8.3721838 -1.2171044 277
0.67500651 -6.160646 -0.95721096 50
0.63561696 -4.3448849 -0.72143632 607
0.78367341 -4.2561712 -0.75452924 628
0.31394717 -4.3554711 -0.79751408 150
0.46527785 -4.2740536 -0.82635921 660
0.60396868 -4.1335835 -0.84460306 414
0.74643379 -4.0539207 -0.87542051 674
0.28904507 -4.0593963 -0.8999896 153
0.42060259 -3.8825598 -0.90160394 232
0.53964144 -3.6978369 -0.90062553 180
0.65658194 -3.5659308 -0.91277516 247
0.25572371 -3.6362138 -0.95018154 303
0.37773037 -3.5154572 -0.9573139 279
0.49325326 -3.3882434 -0.9637211 283
0.60413122 -3.2778556 -0.97591901 332
0.76191515 -11.115421 3.3871717 575
1.1790553 -11.030421 3.2480993 697
1.5853736 -10.945903 3.117192 711
1.9883132 -10.864166 3.0007553 676
0.76732761 -11.109121 2.9276001 610
1.1759604 -11.019666 2.7939484 692
1.5779517 -10.935017 2.6728606 689
1.9796207 -10.859478 2.5626335 796
0.76427531 -11.064931 2.479198 508
1.1709677 -11.009299 2.3593578 698
1.5728469 -10.926621 2.2439532 722
1.9695587 -10.847198 2.1329744 716
0.76716989 -11.078711 2.0562298 660
1.1694965 -10.995468 1.9377962 666
1.5644405 -10.908721 1.8224276 728
1.9618634 -10.847895 1.7184082 720
0.76500583 -11.04746 1.6352534 616
1.1669687 -10.98994 1.5217589 710
1.5661039 -10.9339 1.4169194 698
1.9507202 -10.829447 1.3062731 714
0.76415366 -11.035152 1.2231638 654
1.1638967 -10.979258 1.115641 695
1.5560646 -10.904487 1.0082546 674
1.9444954 -10.816529 0.90353596 692
0.76209462 -11.03336 0.81993288 606
1.1588229 -10.967916 0.71321112 735
1.5468093 -10.866749 0.60598314 686
1.9381034 -10.791788 0.50364524 675
0.76006514 -11.031986 0.4170796 619
1.1541178 -10.959995 0.31168303 726
1.5453722 -10.883883 0.20723861 731
1.9324656 -10.792873 0.10334116 728
0.75579357 -11.026114 0.017360436 627
1.1500148 -10.939364 -0.088312723 685
1.5381718 -10.874077 -0.19169724 703
1.9278581 -10.777984 -0.29436007 706
0.74915731 -11.013823 -0.38549986 572
1.1406692 -10.923806 -0.48721939 661
0.850887 -6.0153294 -0.32689488 178
0.95711333 -5.3562808 -0.34423324 30
0.74552554 -10.988756 -0.78563029 604
0.55919403 -5.3733711 -0.436564 41
0.68738055 -4.8778391 -0.44397014 207
0.8413167 -4.7177591 -0.47832397 97
0.59618533 -8.8793259 -0.96048957 636
0.49507186 -4.7733965 -0.56375301 25
0.75629103 -5.3804388 -0.69024348 41
1.1063913 -6.2104607 -0.86300009 153
0.55964994 -8.4231558 -1.2239921 616
0.55123121 -5.3330159 -0.82807672 88
0.61181897 -4.369225 -0.72484088 591
0.75754327 -4.2608995 -0.75452924 652
0.31678587 -4.8059063 -0.87961912 40
0.44054824 -4.291481 -0.82919049 559
0.58320981 -4.1702161 -0.85134083 606
0.72000432 -4.049757 -0.87355083 628
0.27351058 -4.205297 -0.93194693 201
0.39786065 -3.8957298 -0.9040783 266
0.51909345 -3.7164836 -0.90437418 169
0.63367099 -3.5641642 -0.91131049 245
0.23464675 -3.657028 -0.9552263 298
0.35527778 -3.5090659 -0.95496178 263
0.47285259 -3.3940663 -0.96453387 271
0.58400726 -3.2815008 -0.97591901 326
0.69459146 -11.134211 3.391535 588
1.1125054 -11.048905 3.251471 691
1.5189738 -10.961145 3.1188197 737
1.9229575 -10.883764 3.0028527 783
0.69963461 -11.121342 2.9296341 621
1.1096805 -11.040181 2.7973707 659
1.5120221 -10.953158 2.6749768 711
1.9131197 -10.872378 2.5628595 789
0.69747066 -11.086944 2.4831245 391
1.1029065 -11.011412 2.3583157 687
1.5068423 -10.943833 2.2455468 744
1.9033036 -10.861013 2.1333544 700
0.69948733 -11.088116 2.0571404 658
1.1024002 -11.006357 1.9384867 669
1.4978786 -10.921047 1.8229171 750
1.895435 -10.860703 1.7185622 737
0.69764149 -11.058856 1.636276 632
1.0998094 -10.99985 1.5221682 736
1.4969661 -10.928563 1.4150108 693
1.8852556 -10.847082 1.3069804 702
0.69743007 -11.055505 1.2249223 638
1.0960133 -10.981243 1.1151384 669
1.4906076 -10.924683 1.0092573 683
1.877068 -10.822365 0.9030444 677
0.69519484 -11.050767 0.82089406 618
1.0915033 -10.97482 0.71321112 693
1.4822572 -10.891865 0.60686511 713
1.8704854 -10.795602 0.50327814 678
0.69373626 -11.058383 0.41790876 621
1.0874382 -10.972838 0.31185263 687
1.4796367 -10.901086 0.20738938 768
1.8668863 -10.80847 0.10337887 715
0.6883111 -11.033538 0.017365146 592
1.0865128 -10.983033 -0.08860977 679
1.4716886 -10.885291 -0.19173214 763
1.8618593 -10.790595 -0.29438695 739
0.68162537 -11.01921 -0.38553476 617
1.0749878 -10.944518 -0.48783985 641
0.84326106 -6.2371497 -0.33866182 146
0.92219549 -5.3502507 -0.34347558 78
0.67802435 -10.992127 -0.78555912 591
1.065436 -10.886333 -0.88392133 333
0.66195709 -4.915525 -0.44702211 221
0.82044971 -4.7699041 -0.48309129 184
0.54078388 -8.8679314 -0.95888007 628
0.4601827 -4.7190123 -0.55698609 85
0.72339511 -5.3859611 -0.69036949 21
1.0425932 -6.0677338 -0.84226209 41
0.50819409 -8.4303818 -1.2245661 623
0.43697196 -4.4972448 -0.69787407 34
0.5868302 -4.3865895 -0.72711051 594
0.73088515 -4.2625546 -0.75401402 676
0.46995854 -7.8646545 -1.4389031 88
0.4162823 -4.3156085 -0.83334309 667
0.55929822 -4.1863461 -0.85391706 598
0.69530725 -4.0550628 -0.87375855 610
0.25378576 -4.3102169 -0.95483547 78
0.37413552 -3.9000378 -0.90452826 242
0.49936548 -3.7427258 -0.90999728 158
0.61719805 -3.5995264 -0.91936654 212
0.21461272 -3.6999388 -0.96607256 276
0.33565789 -3.531359 -0.96045005 260
0.45392266 -3.4112167 -0.96859795 282
0.56694615 -3.302994 -0.98125803 340
0.62636757 -11.140174 3.3921165 593
1.0453217 -11.062213 3.2534382 624
1.4534566 -10.983618 3.1226175 742
1.8548434 -10.887749 3.0007553 780
0.63072461 -11.113838 2.9265831 580
1.0418273 -11.045816 2.7971263 642
1.4463104 -10.973793 2.6777985 703
1.8471866 -10.888715 2.5639901 793
0.62953991 -11.092963 2.4835608 335
1.0374254 -11.040367 2.3631094 697
1.4406854 -10.960646 2.2471402 733
1.8376069 -10.878296 2.1344941 735
0.63205343 -11.102997 2.0591428 697
1.0354908 -11.019778 1.939695 663
1.4316086 -10.935903 1.8238962 728
1.8287593 -10.872128 1.7185622 689
0.63112193 -11.086633 1.6397821 651
1.03285 -11.01231 1.5229867 724
1.4291102 -10.931642 1.4142474 715
1.8181715 -10.855508 1.3066267 708
0.62997711 -11.066523 1.2256917 606
1.0283349 -10.98479 1.1148367 650
1.4236755 -10.93461 1.0093485 708
1.8119421 -10.841542 0.90369982 706
0.62799704 -11.065777 0.82170737 575
1.0248837 -10.989259 0.71372736 719
1.4166837 -10.910656 0.60741627 688
1.8050321 -10.811803 0.50350755 652
0.62587023 -11.062431 0.41790876 594
1.021107 -10.990253 0.31216362 682
1.412721 -10.90996 0.20738938 725
1.7988901 -10.809857 0.10328462 718
0.62127131 -11.049535 0.017383996 633
1.01864 -10.984515 -0.088569626 656
1.4044865 -10.891142 -0.19167979 745
1.794631 -10.7959 -0.29422572 709
0.61377758 -11.019193 -0.38539514 565
1.0079048 -10.951903 -0.48788416 617
1.4026713 -10.877067 -0.59011942 662
0.89278281 -5.3764834 -0.34480152 151
0.6114499 -11.012015 -0.78669745 603
1.0011666 -10.920457 -0.88617665 627
0.63051492 -4.9096155 -0.44612449 187
0.78726292 -4.7512879 -0.48070762 285
0.48734075 -8.8889523 -0.96081156 626
0.42905089 -4.6980095 -0.55418599 109
0.80841398 -6.3122973 -0.80845577 88
0.89176846 -5.3878307 -0.74711108 34
0.45618922 -8.4284 -1.2238486 605
0 -0 -0 8
0.55902964 -4.3832555 -0.72597569 605
0.70246947 -4.2533517 -0.75160944 628
0.24120066 -4.5000014 -0.82302594 481
0.38899976 -4.309279 -0.83164424 586
0.53434378 -4.1955328 -0.85510606 632
0.67296302 -4.0746942 -0.87708241 547
0.2274882 -4.3146181 -0.9554832 53
0.34976283 -3.8974075 -0.90340352 234
0.47823095 -3.7601852 -0.91351169 190
0.59478408 -3.6013319 -0.91887826 245
0.19476232 -3.7562687 -0.98045009 235
0.31492338 -3.5439279 -0.96332484 281
0.4340733 -3.4225321 -0.97103637 238
0.54713833 -3.3092511 -0.98210108 325
0.557666 -11.137118 3.3900805 522
0.97742558 -11.068419 3.2534382 681
1.3862759 -10.994239 3.1231601 746
1.7881587 -10.899877 3.0010173 754
0.56315488 -11.130056 2.9298885 581
0.97403181 -11.052001 2.7971263 631
1.3788282 -10.981496 2.6775632 723
1.7819102 -10.909457 2.5662515 786
0.56244928 -11.116111 2.4879239 422
0.96889377 -11.037757 2.3612335 688
1.3736485 -10.971225 2.2475388 727
1.7705092 -10.887428 2.134114 758
0.56486219 -11.125325 2.062602 673
0.96914715 -11.040644 1.9422843 642
1.3650905 -10.949376 1.8247119 715
1.7632779 -10.890946 1.7197943 740
0.56383622 -11.105117 1.6419734 644
0.96534675 -11.019426 1.523123 687
1.3633559 -10.951032 1.415647 702
1.7527934 -10.874303 1.3075699 718
0.56246555 -11.078121 1.226571 611
0.96117401 -10.993866 1.1151384 662
1.3558201 -10.93721 1.0088015 694
1.7452275 -10.851473 0.90361792 666
0.56104439 -11.088346 0.82311213 590
0.95838785 -11.006276 0.71443719 706
1.3516705 -10.934999 0.6082983 725
1.7400842 -10.831552 0.50392056 645
0.55843353 -11.075046 0.41824797 570
0.95373911 -10.997308 0.31219187 675
1.3462415 -10.922393 0.2074648 699
1.7322121 -10.818717 0.10326577 704
0.55336094 -11.051142 0.017380856 624
0.95044518 -10.981592 -0.08849737 624
1.3370243 -10.894593 -0.19159253 718
1.7299334 -10.816579 -0.29449445 698
0.54649973 -11.029738 -0.38563946 600
0.94239509 -10.977789 -0.48877048 625
1.3357829 -10.884477 -0.59006566 701
0.86198068 -5.3956575 -0.34568545 313
0.54431266 -11.024528 -0.78733784 603
0.93583918 -10.946257 -0.88778752 615
0.60363984 -4.9400845 -0.44854808 203
0.75731152 -4.7511158 -0.48021099 346
0.43283835 -8.8927679 -0.9609189 649
0 -0 -0 11
0.76930726 -6.3141842 -0.80807763 26
0.85588843 -5.3755894 -0.7446714 23
0.40455976 -8.4330177 -1.2241356 605
0.3813335 -4.497345 -0.69711089 226
0.53319341 -4.3954196 -0.72743475 586
0.67805833 -4.2682838 -0.75349867 615
0.21442385 -4.5190845 -0.82625985 589
0.36320949 -4.3194132 -0.83315426 531
0.50976908 -4.2084632 -0.85708785 631
0.64227015 -4.0430021 -0.86939603 57
0.35414088 -7.6038442 -1.6833779 541
0.32681584 -3.9111323 -0.90610296 206
0.45246497 -3.7408509 -0.9081229 184
0.57191479 -3.6001248 -0.91765761 200
0.173566 -3.7979927 -0.9910441 187
0.29357001 -3.5506034 -0.96463162 324
0.41341063 -3.4279981 -0.97184914 257
0.52576768 -3.3059115 -0.98013407 361
0.48931944 -11.14033 3.3900805 522
0.90949267 -11.074207 3.2534382 636
1.3181031 -10.996804 3.1215324 765
1.7206432 -10.906831 2.9999688 767
0.49549568 -11.147795 2.9337022 602
0.90675408 -11.064534 2.7988374 641
1.3115362 -10.990715 2.6777985 681
1.7150886 -10.921148 2.5664778 758
0.49414486 -11.117403 2.4874876 541
0.90114915 -11.043494 2.3612335 694
1.3063046 -10.979446 2.2475388 692
1.7024587 -10.890326 2.1325943 744
0.49671936 -11.131529 2.0631485 650
0.90106434 -11.042455 1.9415938 642
1.3024064 -10.995756 1.8310748 744
1.6965711 -10.902537 1.7199484 714
0.49634734 -11.123192 1.6441646 667
0.89731264 -11.020205 1.5224409 652
1.2969514 -10.966085 1.4165376 685
1.6864928 -10.887796 1.3079234 717
0.49510118 -11.095265 1.2281097 648
0.89394051 -11.002531 1.1154399 655
1.2885687 -10.944335 1.0087104 716
1.6781545 -10.859022 0.90337211 685
0.49321845 -11.096561 0.8234818 609
0.8908366 -11.01195 0.71443719 666
1.2840834 -10.939119 0.60807782 713
1.6748095 -10.849923 0.50428766 680
0.49099821 -11.090243 0.41870025 592
0.88632321 -11.003949 0.31222016 646
1.2797786 -10.935411 0.20755902 693
1.665949 -10.83013 0.10327519 706
0.4857614 -11.059324 0.017388709 615
0.88480783 -11.009145 -0.088673994 635
1.2713082 -10.912523 -0.19176705 687
1.6629244 -10.823038 -0.29438695 706
0.4798089 -11.055849 -0.38644215 600
0.87501889 -10.983364 -0.48877048 615
1.2700118 -10.901395 -0.59054923 693
0.82810032 -5.3959126 -0.34536976 421
0.4776479 -11.05058 -0.78897429 627
0.87078452 -10.978621 -0.88996232 591
0.5637939 -4.8615804 -0.44109771 75
0.72859681 -4.7586241 -0.48050898 345
0.37737811 -8.8743963 -0.95866537 646
0.692384 -8.7682247 -1.033236 503
0 -0 -0 6
0.82198966 -5.3748631 -0.74385816 27
0.35256001 -8.429409 -1.2232747 602
0.35318896 -4.4927034 -0.69604242 85
0.5090341 -4.4231157 -0.73148775 589
0.6536389 -4.2840505 -0.7555598 638
0.18766548 -4.5439038 -0.83057165 591
0.33715689 -4.3274345 -0.83428681 478
0.48561525 -4.2261181 -0.86006033 640
0 -0 -0 7
0.30929217 -7.6507521 -1.6933106 733
0.30476603 -3.9383221 -0.91195166 187
0.42795169 -3.7300353 -0.90484279 197
0.54747385 -3.5882282 -0.91375172 208
0.15022045 -3.7980194 -0.99079192 129
0.2725147 -3.5619624 -0.9672451 302
0.39554125 -3.4582047 -0.97970635 289
0.50445867 -3.3024344 -0.97816706 343
0.4220019 -11.17085 3.3985159 582
0.84239763 -11.091063 3.2568099 684
1.2509291 -11.007554 3.1223462 766
1.6539767 -10.919091 3.000493 759
0.42719582 -11.153524 2.9344652 535
0.83943248 -11.077625 2.8007932 649
1.2452754 -11.009179 2.6803849 712
1.6486263 -10.935319 2.5673823 785
0.42636865 -11.131928 2.4901054 603
0.83344418 -11.049791 2.3614421 684
1.2408878 -11.004783 2.2511244 701
1.6344395 -10.8928 2.1310749 710
0.42863503 -11.140262 2.0642407 629
0.83492202 -11.069385 1.9453913 713
1.234033 -10.995696 1.8297696 725
1.6296425 -10.912743 1.7199484 750
0.4282015 -11.128994 1.6446028 678
0.82990009 -11.028468 1.5228502 629
1.2301927 -10.978765 1.4171739 728
1.6196549 -10.89794 1.3079234 693
0.42762405 -11.113985 1.2298682 668
0.8279776 -11.028645 1.1175511 629
1.2219431 -10.956984 1.0091661 723
1.6104701 -10.862213 0.90279853 692
0.42557997 -11.111337 0.82436901 597
0.82429284 -11.031141 0.71534067 691
1.2177103 -10.953739 0.60846364 674
1.6077651 -10.85703 0.50414997 689
0.42305475 -11.096044 0.41881332 611
0.81856513 -11.006189 0.31213534 640
1.2139776 -10.954984 0.2077852 694
1.6007789 -10.849052 0.10336002 744
0.41823325 -11.07109 0.017402846 636
0.81761032 -11.019353 -0.088714138 637
1.2069567 -10.94397 -0.19218591 694
1.5976502 -10.840949 -0.29460195 719
0.41185081 -11.055589 -0.38633746 630
0.80878139 -11.004468 -0.48947954 618
1.2028792 -10.906998 -0.59044176 675
0.79003471 -5.367322 -0.34322304 319
0.40998164 -11.057289 -0.78925884 626
0.80427712 -10.995687 -0.89092892 584
0.5381909 -4.9035592 -0.4445985 21
0.69938475 -4.7630053 -0.48050898 284
0.32215971 -8.8556795 -0.95641196 603
0.63957971 -8.7861767 -1.0348696 595
0.67849463 -6.2018542 -0.79257649 67
0.78856331 -5.3768649 -0.74345148 20
0.30054918 -8.423501 -1.2221267 624
0.62973768 -8.6928768 -1.3461399 27
0.48305959 -4.4369469 -0.73327112 600
0.62890893 -4.2987032 -0.75744915 631
0.16019583 -4.5567675 -0.83272761 606
0.31003577 -4.3215861 -0.83277678 203
0.46317035 -4.2611747 -0.86659998 672
0.58708543 -4.0128322 -0.86129415 15
0.26257637 -7.6593366 -1.6948221 806
0.28080282 -3.9430335 -0.91262645 195
0.40883234 -3.7673845 -0.91327739 187
0.52755231 -3.6059127 -0.91741353 201
0.25062814 -7.5019937 -1.9566122 295
0.25166968 -3.5780103 -0.97116524 311
0.37431467 -3.4605665 -0.97970635 293
0.48488128 -3.3102152 -0.97957206 366
0.35393491 -11.188529 3.4031696 570
0.7749964 -11.105597 3.2596202 667
1.1851124 -11.031291 3.1269579 780
1.5883341 -10.938584 3.0031149 739
0.35927948 -11.172369 2.9387877 578
0.77292699 -11.103848 2.8061712 670
1.1793541 -11.032077 2.6841474 734
1.5819154 -10.948121 2.5680609 745
0.35837007 -11.144089 2.4922867 616
0.76637155 -11.06543 2.3637347 691
1.174171 -11.019986 2.252718 703
1.5700867 -10.920116 2.1344941 713
0.36036694 -11.145631 2.0647869 604
0.76759827 -11.083142 1.9469448 670
1.1651893 -10.990307 1.8276486 719
1.5613931 -10.913733 1.7185622 766
0.35984328 -11.129434 1.6443106 656
0.76371711 -11.055095 1.5258511 646
1.1624918 -10.983149 1.4167922 695
1.5519162 -10.901774 1.3072162 707
0.35961455 -11.12236 1.2305276 655
0.76186466 -11.056347 1.1198635 635
1.1558367 -10.975169 1.0101688 659
1.5437905 -10.87189 0.90279853 685
0.35765052 -11.121714 0.82496053 587
0.75700104 -11.041965 0.71572787 656
1.1517272 -10.972921 0.60912514 708
1.5399951 -10.858778 0.50378287 718
0.35544193 -11.113412 0.4193787 617
0.75183326 -11.022973 0.31247458 600
1.1470482 -10.96521 0.20784175 719
1.5354393 -10.867581 0.10344484 767
0.35127461 -11.104432 0.017451541 653
0.74998146 -11.024162 -0.088714138 590
1.1404041 -10.957136 -0.19229062 694
1.5330567 -10.864406 -0.2949782 719
0.34416264 -11.062902 -0.38651195 582
0.74171382 -11.016201 -0.48978981 585
1.1365528 -10.920133 -0.59076422 689
0.76140404 -5.4027038 -0.34518036 270
0.34243611 -11.069567 -0.78997034 604
0.73686033 -11.001409 -0.89100939 588
0.52327543 -5.0533881 -0.45788351 92
0.67250109 -4.783958 -0.48219737 273
0.26841718 -8.8773651 -0.95855814 645
0.58473229 -8.7760611 -1.033236 568
0.48411426 -4.6911831 -0.59912682 21
0.75596994 -5.3845458 -0.74385816 19
0.24874103 -8.4212303 -1.2215527 592
0.54736859 -8.2587404 -1.2783673 267
0.45632979 -4.4447355 -0.73408175 521
0.60142773 -4.2946763 -0.75607508 565
0.13277507 -4.5763478 -0.83614117 571
0.31120905 -4.7457528 -0.9141292 27
0.43441725 -4.2385845 -0.86144757 652
0.5606885 -4.0037656 -0.85859352 35
0.21549223 -7.6578755 -1.6941743 786
0.25736254 -3.9563501 -0.91532588 156
0.38996327 -3.8114083 -0.923352 187
0.50501341 -3.6062007 -0.91668117 213
0.20596357 -7.5536904 -1.9697286 761
0.23156519 -3.6083851 -0.97900575 317
0.34994942 -3.4321539 -0.97103637 283
0.4689588 -3.3444917 -0.98884511 353
0.28549618 -11.199099 3.4057875 587
0.70787501 -11.126425 3.2643971 670
1.1183727 -11.047932 3.1296706 777
1.5230455 -10.961506 3.0067856 737
0.2909216 -11.182097 2.9408219 582
0.70514888 -11.114188 2.8076382 685
1.1122246 -11.044908 2.6855581 730
1.5149759 -10.959552 2.5685132 747
0.29016215 -11.152906 2.4938135 605
0.69919997 -11.081636 2.3662357 681
1.1070206 -11.031857 2.2537138 748
1.5041227 -10.937326 2.1360137 733
0.29220358 -11.156479 2.0664256 582
0.69982713 -11.091577 1.9476354 718
1.098026 -11.000196 1.8281381 684
1.4948 -10.926044 1.7190242 743
