# .PCD v0.7 - Point Cloud Data file format
VERSION 0.7
FIELDS x y z intensity
SIZE 4 4 4 4
TYPE F F F F
COUNT 1 1 1 1
WIDTH 1545
HEIGHT 1
VIEWPOINT 0 0 0 1 0 0 0
POINTS 1545
DATA ascii
0.13146666 3.853904 -1.0051695 1128
-0.012250696 4.4922333 -1.2163087 763
-0.17853272 4.4330173 -1.2487463 733
-0.34004053 4.3534083 -1.2785579 771
0 0 0 10
-0.094674721 43.504387 12.73809 91
-1.7172829 43.424011 12.248223 21
-0 0 0 8
0 0 0 6
-0.087126888 43.526943 10.973624 112
-1.6917177 43.352428 10.496038 14
-0 0 0 6
0 0 0 5
-0.072108634 43.633179 9.2984123 116
-1.6911392 43.729362 8.8955364 15
-3.2704282 43.346684 8.4103279 26
0 0 0 11
-0.072347604 43.777782 7.6719542 140
-1.6688668 43.746613 7.2396226 24
-3.2482052 43.456512 6.7929263 16
1.5813838 44.940552 6.6403503 16
-0.064805195 43.844269 6.0371108 129
-1.668113 43.92812 5.6391764 20
-3.2150998 43.421413 5.1687436 19
1.5676663 44.550716 4.9293647 20
-0.057246849 43.916328 4.4376311 117
-1.6457622 43.946346 4.0254526 14
-3.2223432 43.726501 3.6047211 19
1.5967071 45.151787 3.3495257 26
-0.03931582 41.190945 2.6637001 38
-1.6195343 43.65345 2.4116948 14
-3.212785 43.700859 2.0127914 15
0 0 0 12
-0.019635921 32.434029 0.91729516 40
-0.58610779 15.948399 0.30085883 223
-1.0074739 13.802667 0.130437 402
0.47462726 13.22547 0.02078791 255
-0.0054991208 12.762588 -0.10246684 243
-0.43982616 12.141187 -0.21206421 268
-0.83261836 11.434585 -0.30822751 317
0.4152925 11.405485 -0.39855227 329
0.0029502502 11.039144 -0.48970112 358
-0.38839477 10.721448 -0.5772779 387
-0.74980175 10.322113 -0.65475035 317
0.33070356 9.0389719 -0.6451816 259
0.00520695 8.4484596 -0.68271524 323
-0.23744436 6.6507883 -0.59979951 381
-0.45270967 6.2624593 -0.62670767 569
0.24245609 6.5026917 -0.70231307 669
0.006095042 6.3135834 -0.74167591 604
-0.21747546 6.1516848 -0.78199035 676
-0.42921969 5.9519606 -0.81637341 677
0.23301223 6.1343837 -0.89008474 767
0.0079254899 6.0295019 -0.93126202 748
-0.2050135 5.886467 -0.96769738 723
-0.41413656 5.7708826 -1.0087298 440
0.22591467 5.8665447 -1.0722154 757
0.011589637 5.7585812 -1.1068457 763
-0.1923016 5.5493188 -1.1226364 670
-0.3702524 5.159368 -1.0985342 556
0.20230295 5.1368127 -1.1368631 603
0.012598059 4.9673228 -1.1468005 629
-0.16658987 4.8317099 -1.1651433 651
-0.28251246 3.9367356 -0.99357986 1066
0.15503345 3.8510914 -1.004665 1004
0.015280456 4.4825716 -1.2136952 747
-0.15123038 4.4311433 -1.2479335 737
-0.31249577 4.343926 -1.2751858 794
0 0 0 6
0.17216237 43.478237 12.730502 60
-1.450838 43.434692 12.248494 13
-3.0508771 43.162685 11.756301 17
0 0 0 10
0.18044011 43.644951 11.003448 109
-0 0 0 9
-3.0227065 43.192863 10.051981 15
0 0 0 6
0.19577435 43.66703 9.305707 122
-1.4232669 43.753609 8.8985243 18
-2.9982893 43.277782 8.3932323 14
0 0 0 7
0.19655621 43.841423 7.6831737 129
-0 0 0 5
-2.9825814 43.491394 6.7953901 25
1.8601683 45.004135 6.6513066 24
0.20460239 43.926064 6.0484328 133
-1.3978179 43.914726 5.6362495 21
-2.9469295 43.415554 5.1657968 16
0 0 0 12
0.21266688 44.008381 4.446981 128
-1.3797584 44.073071 4.0362086 15
-2.9519002 43.714622 3.602181 17
0 0 0 10
0.21387249 41.276234 2.66925 38
-0 0 0 9
-0 0 0 13
1.7423868 41.800953 1.5779749 18
0.17994532 32.536495 0.92020702 44
-0.48784155 15.938703 0.30061376 227
-0.92249668 13.804597 0.1303993 379
0.5595479 13.312229 0.020929283 249
0.073010422 12.797379 -0.10274783 217
-0.36607257 12.168641 -0.21250051 280
-0.76456869 11.471395 -0.30908749 336
0.48671219 11.436671 -0.39973885 365
0.070749074 11.048907 -0.49014431 366
-0.32290214 10.73361 -0.57781518 392
-0.68737912 10.340461 -0.65563428 323
0.38121957 8.9211721 -0.63692826 267
0.057361946 8.4951143 -0.68650097 333
-0.19783793 6.6929374 -0.60347986 385
-0.41683593 6.3038421 -0.63058114 548
0.28312781 6.518961 -0.70424455 668
0.044947188 6.3293171 -0.74354261 674
-0.18021773 6.1697602 -0.78413272 683
-0.39379945 5.9712892 -0.81867766 643
0.27077863 6.1358047 -0.89051527 731
0.045083653 6.0510812 -0.93462008 760
-0.16962662 5.91326 -0.97191256 706
-0.37936416 5.7831454 -1.0104475 659
0.26278457 5.8847032 -1.0758086 793
0.04692341 5.7584019 -1.1068457 741
-0.15903017 5.5778275 -1.1281852 632
-0.33999678 5.1830173 -1.1031046 545
0.23372921 5.1335239 -1.1364312 590
0.043000694 4.9583831 -1.144776 601
-0.13638918 4.8132052 -1.1604574 590
-0.25701877 3.9180741 -0.98845327 858
0.17825669 3.8413677 -1.0023949 948
0.042950545 4.4997668 -1.2183995 763
-0.12376925 4.4223652 -1.2452241 757
-0.28564712 4.3428888 -1.2743429 773
0 0 0 7
0.44089368 43.670212 12.787265 72
-1.1845889 43.453362 12.251479 13
-2.7864757 43.188301 11.758399 16
0 0 0 3
0.44863546 43.681808 11.013227 124
-0 0 0 6
-2.7582438 43.220322 10.054243 20
0 0 0 4
0.46489051 43.776497 9.3294668 126
-1.1520587 43.658657 8.8776083 14
-2.7407873 43.423725 8.4181156 19
2.1059062 44.35231 8.2214603 13
0.46578854 43.861061 7.6869712 131
-0 0 0 7
-0 0 0 10
0 0 0 12
0.4745836 43.966579 6.0542979 142
-1.130603 44.010723 5.6475739 18
-2.692348 43.625103 5.1886663 18
2.1251435 44.757465 4.9547529 14
0.48321703 44.054001 4.4518065 115
-0 0 0 10
-2.6837387 43.733902 3.6023448 19
0 0 0 12
0.46819624 41.367939 2.6753159 41
-1.0218154 41.175606 2.2739389 36
-2.6755342 43.725029 2.0122406 18
2.1300843 44.533386 1.6815852 16
0.37953544 32.530781 0.92009389 62
-0.38974088 15.929403 0.30038762 244
-0.83795756 13.812992 0.13042758 354
0.64362592 13.358488 0.021007823 249
0.15156782 12.79969 -0.10277192 257
-0.29149604 12.174656 -0.21257031 248
-0.69464999 11.483853 -0.30930248 333
0.55653679 11.426482 -0.39949456 311
0.13883068 11.071241 -0.49116358 366
-0.25772902 10.764339 -0.57937336 407
-0.62493968 10.361418 -0.65670764 314
0.4356108 8.9116907 -0.63643026 301
0.10952444 8.497592 -0.68674254 344
-0.15783976 6.7398267 -0.60760897 423
-0.37922049 6.3241591 -0.63236886 520
0.32445139 6.5439119 -0.70714182 626
0.083940059 6.3408394 -0.74494267 693
-0.1425862 6.1806679 -0.785393 705
-0.35839465 5.9943619 -0.82152408 627
0.30827302 6.1310625 -0.89008474 730
0.082251824 6.0536556 -0.93507802 751
-0.1332069 5.9082704 -0.97093982 709
-0.34416458 5.7902813 -1.0113063 750
0.29868782 5.8790498 -1.0750899 767
0.082325555 5.7629151 -1.1077895 728
-0.12526263 5.5992765 -1.1323467 622
-0.30929074 5.2035584 -1.1070517 526
0.26582822 5.1436939 -1.1390224 639
0.073669232 4.9745884 -1.1486002 685
-0.10711223 4.8256149 -1.1632689 636
-0.23458414 3.9466822 -0.99528867 568
0.2022806 3.8488989 -1.004665 837
0.070711143 4.5090704 -1.2210131 775
-0.096989222 4.4394021 -1.24983 734
-0.25848025 4.3359375 -1.2718139 776
0 0 0 5
0.70905888 43.680119 12.791199 79
-0.91985244 43.55027 12.276979 16
-2.5290709 43.335602 11.794056 14
0 0 0 6
0.71829206 43.778095 11.038406 100
-0 0 0 5
-2.5115569 43.558319 10.129095 18
0 0 0 0
0.73563594 43.900925 9.3567705 107
-0.88466841 43.69038 8.8827877 21
-2.473846 43.431885 8.4165964 21
0 0 0 10
0.73667204 43.962757 7.705442 140
-0 0 0 6
-2.4554214 43.645073 6.8141804 19
2.4230533 45.178452 6.6809616 15
0.74574047 44.045052 6.0656199 147
-0 0 0 12
-2.4243431 43.635841 5.1880765 18
0 0 0 11
0.75407976 44.083035 4.4551244 115
-0 0 0 10
-2.4153421 43.749542 3.6023448 15
2.4426975 45.396564 3.3704493 16
0.72335738 41.441116 2.680285 53
-0 0 0 4
-2.409827 43.788498 2.0144432 14
2.4078207 44.603298 1.6847512 20
0.5795961 32.553825 0.920829 57
-0.29151621 15.905503 0.29989755 243
-0.7533502 13.820869 0.13045585 353
0.72872669 13.412202 0.021098929 222
0.23019226 12.803519 -0.10281206 247
-0.21757141 12.220202 -0.21333823 292
-0.62460715 11.495884 -0.30951747 311
0.62647367 11.419858 -0.39938986 314
0.20746884 11.108137 -0.49284762 357
-0.19167542 10.765718 -0.57937336 427
-0.56253886 10.386982 -0.65809667 307
0.48940673 8.8929148 -0.63529187 320
0.16152988 8.4897842 -0.68617868 348
-0.11658522 6.7466431 -0.60814756 441
-0.34024867 6.3233867 -0.6320709 510
0.36498526 6.5487466 -0.70789295 650
0.12303754 6.3501348 -0.74610943 686
-0.10499553 6.2012639 -0.7879135 710
-0.32415414 6.0439367 -0.82803011 688
0.34627706 6.1359725 -0.89108926 723
0.11929736 6.0480962 -0.93431479 708
-0.09709762 5.9178557 -0.97239888 694
-0.30952066 5.8090076 -1.0142261 747
0.33492318 5.880053 -1.075629 741
0.11774474 5.7652469 -1.1083556 709
-0.091078758 5.6107202 -1.1345266 633
-0.27782491 5.2141495 -1.1089214 513
0.29710248 5.1370926 -1.1379428 613
0.10468107 4.9974222 -1.153999 670
-0.07762567 4.8339577 -1.1651433 630
-0.2409091 4.5213227 -1.1398094 408
0.22521262 3.8359931 -1.0016382 721
0.098629616 4.5201311 -1.2241491 775
-0.06965702 4.4341388 -1.2482045 739
-0.23217797 4.3431921 -1.2734998 793
0 0 0 8
0.97738373 43.689342 12.795415 58
-0.65580249 43.76778 12.336929 16
-2.2596998 43.284771 11.776227 15
0 0 0 0
0.98680842 43.768986 11.037428 105
-0 0 0 5
-2.2391303 43.473686 10.10603 25
0 0 0 6
1.0055975 43.921986 9.3623981 113
-0.61628228 43.674408 8.8786049 25
-2.2120888 43.540379 8.4348316 28
0 0 0 10
1.0064086 43.957413 7.705442 110
-0 0 0 0
-2.1866841 43.641556 6.8114085 13
2.7005129 45.167671 6.6816921 13
1.0172384 44.094116 6.0731225 117
-0.59039861 44.018311 5.6471925 13
-2.1650302 43.82148 5.2084708 15
2.6833618 44.880814 4.9716787 14
1.0271204 44.187988 4.4662838 99
-0 0 0 12
-2.1473916 43.77449 3.6032462 18
0 0 0 12
0.97682142 41.401981 2.678091 30
-0 0 0 0
-2.1412954 43.806454 2.0146267 16
0 0 0 12
0.77933168 32.549656 0.920829 33
-0.19364826 15.884998 0.29948288 257
-0.66969186 13.849203 0.13068205 345
0.81752956 13.515281 0.021268575 210
0.30944803 12.830856 -0.10304488 253
-0.14267887 12.229305 -0.21347784 265
-0.55550122 11.529455 -0.31032375 289
0.69848049 11.447721 -0.40050665 343
0.27594537 11.119638 -0.49342376 355
-0.12591749 10.792653 -0.58077037 427
-0.49994346 10.414163 -0.65961206 320
0.54250133 8.8658504 -0.63358426 317
0.21321797 8.4726896 -0.68488997 344
-0.07527519 6.755199 -0.60886568 438
-0.30338472 6.366106 -0.63614303 537
0.40589774 6.5582919 -0.70918065 646
0.16220157 6.357203 -0.74704278 638
-0.066921905 6.1998076 -0.78766149 675
-0.28725111 6.0497708 -0.82857227 666
0.38441473 6.141634 -0.89223719 777
0.15704434 6.0719495 -0.93813086 773
-0.060997326 5.9390612 -0.97580338 694
-0.27433524 5.8206382 -1.0159436 751
0.36944702 5.853343 -1.0711374 760
0.15403005 5.7987742 -1.114962 732
-0.056887791 5.634696 -1.1392827 638
-0.24628676 5.2255268 -1.1109987 523
0.3297399 5.1527123 -1.1418294 664
0.13571207 5.0103221 -1.1571482 656
-0.047876798 4.8255939 -1.1630346 620
-0.22010177 4.6699533 -1.176916 554
0.24855766 3.8316422 -1.0008814 626
0.12617393 4.5126872 -1.2223197 730
-0.042273279 4.416194 -1.2430567 735
-0.20602313 4.3550801 -1.2765909 804
0 0 0 6
0 0 0 10
-0.38523516 43.544804 12.273181 54
-0 0 0 11
0 0 0 5
1.2810143 44.656734 11.263065 25
-0.36280942 43.589973 10.545889 69
-1.9798415 43.652031 10.144473 15
0 0 0 8
1.2881078 44.36372 9.458065 20
-0.34821922 43.668549 8.876812 69
-1.9429613 43.509975 8.4264746 15
0 0 0 11
0 0 0 5
-0.32618475 43.780178 7.2401123 92
-0 0 0 12
2.9708352 45.047588 6.6664991 15
0 0 0 0
-0.31917042 43.866375 5.6273432 78
-1.8903124 43.700005 5.1925559 15
2.9550974 44.808952 4.9656339 14
0 0 0 9
-0.29688835 43.968185 4.0247235 102
-1.8842673 43.915295 3.6138163 17
2.999994 45.369141 3.370893 17
1.2325313 41.452061 2.6817694 40
-0 0 0 9
-0 0 0 9
2.9678814 44.764824 1.6921008 23
0.97777551 32.502296 0.91964161 75
-0.095486052 15.771909 0.29733413 274
-0.58575636 13.878028 0.13091765 361
0.90842265 13.629745 0.02145707 219
0.38932008 12.866696 -0.10334996 276
-0.067715995 12.243948 -0.21372217 264
-0.48525116 11.544632 -0.31064624 297
0.77011591 11.46416 -0.40123954 328
0.34478721 11.137707 -0.49431008 382
-0.059874896 10.826174 -0.58254349 431
-0.43703565 10.440966 -0.66112739 350
0.59548336 8.8414555 -0.63209015 325
0.26510784 8.4682331 -0.68464833 349
-0.033789746 6.7485619 -0.60823733 469
-0.26506013 6.3857436 -0.63793081 471
0.44781861 6.5804763 -0.71186328 621
0.20189691 6.3779268 -0.74960953 610
-0.028999476 6.225894 -0.7909382 660
-0.25041142 6.0583491 -0.82952106 672
0.42249915 6.1450834 -0.89309812 753
0.1936975 6.0521035 -0.93523067 724
-0.024648612 5.9620194 -0.97953218 735
-0.23849428 5.8192587 -1.0154284 740
0.40549147 5.8529282 -1.0714967 753
0.18944728 5.7928128 -1.1140183 706
-0.022336161 5.64082 -1.1404717 653
-0.2139385 5.220098 -1.1095445 512
0.3610085 5.1457224 -1.1407498 611
0.1658051 4.9899182 -1.1526492 629
-0.018318128 4.839407 -1.1663147 625
-0.19235669 4.6935019 -1.1825309 687
0.27199495 3.8290796 -1.0006292 947
0.15340032 4.4983225 -1.2186608 729
-0.015158687 4.4115572 -1.241702 725
-0.17874445 4.3428378 -1.2726569 769
0 0 0 9
1.5258096 44.030853 12.899947 16
-0.11792459 43.503033 12.260973 99
-1.7330152 43.425919 11.807953 14
0 0 0 4
1.5457174 44.381538 11.195838 599
-0.095331036 43.587486 10.544949 109
-1.7049766 43.485237 10.103089 14
0 0 0 0
1.5682024 44.579788 9.5060024 20
-0.080321513 43.699261 8.8827877 128
-0 0 0 12
0 0 0 9
0 0 0 6
-0.057606839 43.825752 7.2474537 139
-1.6514184 43.676956 6.8132567 21
0 0 0 6
0 0 0 5
-0.050023481 43.883381 5.6293793 104
-1.6264474 43.826885 5.2063484 18
3.2394929 44.921833 4.9802518 16
0 0 0 8
-0.027113177 43.992081 4.0268197 138
-1.6117338 43.843365 3.6070154 22
3.2824159 45.406574 3.375107 17
1.4945456 41.658134 2.6956439 37
-0 0 0 8
-0 0 0 13
3.2264636 44.524509 1.6837336 20
1.1629657 32.1031 0.90853125 42
0.0012825074 15.676215 0.29552472 271
-0.50102377 13.893353 0.13103075 347
1.0012593 13.750578 0.021656562 240
0.47004375 12.913033 -0.10374336 302
0.007421209 12.258131 -0.2139665 294
-0.41709432 11.622317 -0.31266186 276
0.84212548 11.482142 -0.40204221 347
0.41397232 11.158343 -0.49532941 379
0.0065622441 10.839318 -0.58324194 416
-0.37381771 10.467388 -0.66264272 358
0.64957595 8.8356447 -0.63194782 341
0.31810743 8.4943371 -0.68690372 323
0.0076260339 6.7546182 -0.60877591 448
-0.22643562 6.4031606 -0.63951987 481
0.48848158 6.5815711 -0.71229249 597
0.24117738 6.380538 -0.75007623 607
0.0092083039 6.2299228 -0.79144222 663
-0.21438316 6.0924468 -0.83399397 673
0.46086216 6.151257 -0.89438957 737
0.23199676 6.0814157 -0.93996257 778
0.011965719 5.9778466 -0.98212612 799
-0.20295499 5.8255353 -1.0162872 721
0.44206282 5.8591585 -1.0731137 758
0.22502588 5.7925229 -1.114207 705
0.012279948 5.6428118 -1.1408682 637
-0.1822111 5.2301111 -1.1114143 496
0.39190644 5.1346478 -1.1388063 604
0.19638121 4.9878335 -1.1524243 659
0.011401399 4.8501225 -1.168892 611
-0.16372311 4.6994395 -1.1837516 678
0.29905993 3.8736489 -1.0127367 1342
0.18130913 4.505012 -1.2207515 751
0.011957184 4.428894 -1.2465788 740
-0.15222825 4.3476887 -1.2737808 819
0 0 0 5
1.8040864 44.220116 12.958395 21
0.14927427 43.580902 12.282947 112
-1.469815 43.533146 11.834434 14
0 0 0 5
1.8317431 44.70644 11.280422 22
0.17243712 43.667923 10.564466 139
-0 0 0 9
0 0 0 10
1.829353 44.270306 9.4422245 21
0.1879779 43.737152 8.8905573 140
-1.4134856 43.672825 8.4540167 21
3.5080819 44.811882 8.3226881 12
0 0 0 4
0.21154661 43.875599 7.255775 130
-1.3960248 44.085243 6.8754811 13
4.1620841 53.166039 7.874898 15
0 0 0 9
0.2194638 43.92749 5.6351047 122
-1.358791 43.877728 5.2112999 19
3.5201867 44.966507 4.9875059 19
0 0 0 12
0.24293309 44.012333 4.0287342 138
-1.3522019 44.163235 3.6325803 13
0 0 0 12
1.7479901 41.597328 2.6923525 26
0 0 0 0
-0 0 0 11
0 0 0 10
0.98098058 23.151962 0.65536833 91
0.096966386 15.594928 0.29399797 244
-0.41519815 13.877174 0.13085169 382
1.1006521 13.934583 0.021956583 218
0.5498203 12.922893 -0.10384773 296
0.082736649 12.272852 -0.2142283 282
-0.34645686 11.647638 -0.31327996 290
0.91335487 11.486722 -0.40239123 311
0.48303509 11.169566 -0.49594983 362
0.073124781 10.847063 -0.58367181 371
-0.31043944 10.498413 -0.66447371 350
0.70655155 8.8662939 -0.6344381 377
0.37078604 8.5051708 -0.68795079 387
0.049049739 6.7514563 -0.60850662 503
-0.18810141 6.437252 -0.64279741 471
0.53013086 6.594306 -0.71400934 620
0.28136954 6.402751 -0.75287628 610
0.047524858 6.241653 -0.79295456 663
-0.17745683 6.1094928 -0.83616263 701
0.49979678 6.1631098 -0.89654189 718
0.2694822 6.0838265 -0.9405731 752
0.048620783 5.9747005 -0.98163974 738
-0.16802585 5.8552279 -1.0212681 782
0.47840577 5.861238 -1.074012 749
0.26118186 5.8047671 -1.1168495 731
0.046968535 5.6504712 -1.1424534 619
-0.15084584 5.2565532 -1.1168156 471
0.42364553 5.135066 -1.1394542 598
0.22746967 4.997242 -1.1548988 645
0.04113622 4.8470445 -1.168189 613
-0.1348848 4.7003555 -1.1837516 657
0.3219381 3.8611333 -1.009962 1199
0.2096637 4.5192423 -1.2249331 736
0.039106626 4.4258494 -1.2457659 747
-0.1253269 4.3408666 -1.2715329 772
0 0 0 4
0 0 0 10
0.41704696 43.617664 12.293797 97
-0 0 0 6
0 0 0 5
0 0 0 8
0.44104177 43.732136 10.580455 125
-0 0 0 4
0 0 0 4
0 0 0 8
0.45686191 43.785149 8.9007158 106
-1.150558 43.874027 8.4914379 20
0 0 0 10
0 0 0 10
0.48128796 43.921814 7.2637696 172
-0 0 0 4
0 0 0 12
0 0 0 10
0.48965618 43.984829 5.6427388 143
-1.0922478 43.994438 5.224267 23
3.814182 45.158981 5.0113554 15
2.1376617 44.702023 4.5221815 19
0.51362151 44.064781 4.0337477 129
-0 0 0 7
3.8706644 45.732536 3.4026108 19
2.1851668 45.363541 2.9369299 18
0 0 0 5
-0.99833351 41.078545 1.8874766 22
3.8487782 45.3797 1.71773 17
1.1230683 23.146505 0.65539658 77
0.18772513 15.195141 0.28647745 154
-0.32956615 13.859467 0.13066319 337
1.2147292 14.26335 0.022485942 308
0.63017339 12.941249 -0.10402435 284
0.15825878 12.289109 -0.214525 261
-0.27571303 11.680526 -0.31411308 297
0.9908157 11.562552 -0.40525296 305
0.55131471 11.161403 -0.49572825 353
0.13992403 10.865381 -0.58469266 354
-0.24718536 10.550007 -0.66763067 370
0.76153815 8.8687487 -0.63493609 344
0.42341152 8.5116949 -0.6886757 396
0.090821974 6.7769208 -0.61084044 489
-0.14880627 6.4472384 -0.64369136 451
0.56946802 6.578052 -0.71261442 644
0.32134646 6.4147911 -0.75450969 637
0.085876584 6.2452116 -0.7934587 650
-0.14010246 6.1164098 -0.83697593 714
0.53941047 6.1806312 -0.89955533 752
0.3062591 6.0712018 -0.93889409 768
0.0852236 5.9703431 -0.98099124 745
-0.13211791 5.8571343 -1.0214399 721
0.51470482 5.8621125 -1.0747306 748
0.29689464 5.805017 -1.1172271 719
0.081694931 5.6539965 -1.1432461 586
-0.11889823 5.2710705 -1.1197239 461
0.45652571 5.1479311 -1.142909 636
0.25752455 4.9840751 -1.1521994 620
0.070592053 4.8272595 -1.1635032 591
-0.10593208 4.6962471 -1.1825309 683
0.34510559 3.8533022 -1.0084486 1114
0.23779449 4.5255818 -1.227024 751
0.066161513 4.4187889 -1.2438694 738
-0.098645866 4.3396354 -1.2709708 789
0 0 0 0
0 0 0 10
0.68636411 43.722073 12.324181 99
-0 0 0 7
0 0 0 6
0 0 0 9
0.70984173 43.757759 10.587509 130
-0 0 0 9
0 0 0 4
0 0 0 12
0.72684538 43.861866 8.9170504 108
-0.8784914 43.738911 8.4640846 16
0 0 0 10
0 0 0 8
0.75113219 43.938751 7.2671957 133
-0 0 0 7
4.8041978 53.000618 7.8585367 16
0 0 0 10
0.76139957 44.089092 5.6566076 121
-0.8208909 43.925846 5.2154255 20
0 0 0 0
2.4156077 44.756615 4.5291185 14
0.78513974 44.125515 4.0396724 146
-0 0 0 6
4.152554 45.722824 3.4037199 18
0 0 0 0
0 0 0 6
-0.75157714 41.376541 1.9009211 16
4.1290522 45.376125 1.7185216 16
1.2655627 23.148163 0.65565103 90
0.26088226 14.108082 0.26600805 232
-0.24407895 13.836233 0.13042758 305
1.3073188 14.311396 0.022573905 417
0.71159375 12.974082 -0.1043214 253
0.23390746 12.300902 -0.21475187 265
-0.20442155 11.703986 -0.31470433 290
1.062658 11.566207 -0.40560198 307
0.62012184 11.163795 -0.49599412 381
0.20653316 10.861322 -0.58453149 410
-0.18210201 10.531368 -0.66636795 375
0.81621569 8.866888 -0.63514954 369
0.47574157 8.5109272 -0.68883675 381
0.13251941 6.7822104 -0.61137903 463
-0.11005305 6.4957857 -0.64845866 422
0.6107378 6.5843344 -0.71368748 646
0.3610355 6.4186482 -0.75520974 621
0.12470774 6.2703547 -0.79673535 713
-0.10248719 6.1122012 -0.83629817 660
0.57852107 6.1900144 -0.90142065 762
0.34367305 6.0721684 -0.93935198 718
0.12219769 5.9864793 -0.98374736 765
-0.096209072 5.8598046 -1.0217835 746
0.55057234 5.8578644 -1.074551 744
0.33189005 5.7923017 -1.1151508 705
0.11656724 5.6622086 -1.1450297 617
-0.086986877 5.2981081 -1.1253328 482
0.48828867 5.1469769 -1.1433408 630
0.28782016 4.9775372 -1.1510745 626
0.100634 4.847147 -1.1684234 659
-0.076955251 4.6871123 -1.1800897 679
0.36911145 3.8549654 -1.0094576 964
0.26589784 4.5298195 -1.228592 744
0.093354717 4.4221492 -1.2449532 736
-0.071857281 4.3305626 -1.2681608 790
0 0 0 0
0 0 0 10
0.95567542 43.765152 12.337744 106
-0 0 0 6
0 0 0 0
0 0 0 10
0.9791249 43.788536 10.59621 92
-0 0 0 5
0 0 0 7
2.6626482 44.542522 9.5091286 18
0.99787641 43.940834 8.9341803 132
-0.61160409 43.851463 8.4849796 20
0 0 0 6
0 0 0 5
1.0231273 44.03688 7.284327 100
-0 0 0 9
5.1605873 53.29311 7.9064517 23
0 0 0 10
1.0321894 44.09549 5.6581345 98
-0.55327076 44.082973 5.2335801 18
4.3846383 45.279926 5.0303698 24
2.6981854 44.874031 4.5425901 17
1.0572083 44.175617 4.0447769 89
-0 0 0 11
4.4463143 45.833462 3.4139228 29
0 0 0 14
0 0 0 5
-0 0 0 13
4.4074941 45.350937 1.7185594 29
1.4055704 23.107035 0.65471804 81
0.34714749 14.094221 0.26578185 305
-0.15913081 13.833471 0.13038988 310
1.4028735 14.382727 0.022699568 468
0.79551089 13.040338 -0.10489142 261
0.31051141 12.344214 -0.21553722 267
-0.13271663 11.715015 -0.31497306 300
1.136533 11.589307 -0.40664896 280
0.68830228 11.154794 -0.49577254 350
0.27367529 10.879815 -0.58560604 402
-0.11718991 10.506341 -0.66472632 359
0.86885113 8.8438454 -0.63386887 361
0.5307945 8.5536108 -0.69254196 427
0.17474537 6.8051653 -0.61353338 403
-0.070311852 6.5072842 -0.64955121 428
0.65132278 6.5824413 -0.71390206 635
0.40164995 6.4361372 -0.75754315 613
0.16289565 6.258563 -0.79534906 669
-0.065192133 6.1325293 -0.83900905 694
0.61609888 6.1824093 -0.90084672 741
0.3810485 6.0719175 -0.93965721 762
0.15945156 6.0053453 -0.98698974 792
-0.060444612 5.8790011 -1.0250468 750
0.58738768 5.8631854 -1.0761679 773
0.36661619 5.7774153 -1.112697 696
0.15138626 5.6643262 -1.1456242 625
-0.05438615 5.2897391 -1.1234633 432
0.51946807 5.1399984 -1.1424773 641
0.31810749 4.9717884 -1.1501749 651
0.13058278 4.8542128 -1.1702977 624
-0.048234105 4.6913753 -1.1810662 688
0.39442649 3.8689933 -1.0137455 858
0.29356232 4.5261765 -1.2280694 754
0.12048675 4.4214931 -1.2449532 720
-0.045304168 4.3328419 -1.2687229 781
0 0 0 6
0 0 0 11
0 0 0 12
-0.40085557 43.538738 11.829715 48
0 0 0 6
0 0 0 12
1.2717118 44.621136 10.799373 17
-0.37122619 43.629089 10.129095 70
0 0 0 11
2.9504492 44.745903 9.5562325 13
1.2780427 44.30024 9.0086803 18
-0.34155118 43.72971 8.4608555 79
4.644958 45.082996 8.3916903 13
0 0 0 5
1.3172115 44.843369 7.4189291 25
-0.31147066 43.793015 6.8266563 92
5.487288 53.258476 7.9061599 13
0 0 0 11
1.3163278 44.548355 5.7171731 23
-0.28156209 43.896866 5.2111816 109
0 0 0 11
0 0 0 0
0 0 0 0
-0.26662678 43.960869 3.6143076 116
4.7271519 45.802341 3.4137008 33
0 0 0 13
0 0 0 5
-0 0 0 8
4.698113 45.44331 1.7231199 26
1.5466578 23.088001 0.65443534 69
0.43371373 14.094824 0.26583841 328
-0.074295536 13.843186 0.1304747 295
1.4949157 14.410651 0.022757689 436
0.87678319 13.054168 -0.10504396 261
0.38703012 12.367062 -0.21597354 251
-0.060821764 11.71361 -0.31491932 305
1.2144625 11.647719 -0.40895233 284
0.75788385 11.167305 -0.49652594 366
0.34080225 10.889908 -0.58625084 369
-0.052912302 10.544786 -0.66712558 362
0.92527544 8.8591805 -0.63536298 349
0.58347201 8.5531759 -0.69278359 454
0.21709961 6.8228784 -0.61523885 361
-0.030582344 6.5503798 -0.65382195 449
0.69149172 6.5763435 -0.71368748 665
0.44276434 6.4573317 -0.76034319 629
0.2020918 6.2822337 -0.7984997 671
-0.02762921 6.1476755 -0.84104222 710
0.65548033 6.1922908 -0.90285563 717
0.41856971 6.0734091 -0.9402678 756
0.19571628 5.9865017 -0.98407155 756
-0.024468604 5.902904 -1.029169 793
0.62231183 5.849689 -1.0743713 731
0.40226346 5.7779961 -1.1132632 686
0.1853341 5.6387997 -1.1406698 567
-0.022025207 5.3134494 -1.128449 465
0.55224639 5.1483645 -1.1450684 641
0.34806234 4.9619665 -1.1483752 607
0.15991575 4.8397169 -1.1670177 587
-0.019403242 4.6809158 -1.1783808 647
0.4404245 4.0723805 -1.0677246 366
0.32002965 4.5059962 -1.2231038 733
0.14751787 4.4177842 -1.2441403 723
-0.018700914 4.3291993 -1.2675989 746
4.9081135 44.64241 13.653691 37
0 0 0 9
1.5072411 44.177231 12.458189 13
-0.13359565 43.506603 11.820538 108
4.8930912 44.721321 11.827617 42
0 0 0 12
1.5517708 44.79414 10.843344 25
-0.10352077 43.632496 10.129548 138
4.9087577 44.864506 10.088253 68
0 0 0 7
1.5498397 44.291561 9.0086803 22
-0.073216103 43.72607 8.4599056 142
4.907187 44.922668 8.3672943 52
0 0 0 7
1.5999043 45.047413 7.4541702 26
-0.04279064 43.829674 6.832201 125
4.9249196 45.084999 6.6971765 87
0 0 0 5
1.5886914 44.512676 5.7137375 17
-0.012218695 43.926563 5.2146006 124
4.9370484 45.196033 5.0274019 66
3.2503092 44.860363 4.5449023 17
0 0 0 8
0.0031210158 44.017487 3.6188962 144
4.9431295 45.178658 3.3694141 82
3.2413385 44.520927 2.8866594 21
0 0 0 11
0.010167303 41.42532 1.9028484 14
4.9633608 45.290451 1.7184463 48
1.7019323 23.264503 0.65972197 47
0.52114874 14.117875 0.26632848 301
0.010649133 13.847382 0.1305124 351
1.5836375 14.40419 0.022762403 410
0.96125352 13.108379 -0.10552567 241
0.46507528 12.422404 -0.21698578 274
0.011064061 11.725759 -0.31524181 279
1.28953 11.672829 -0.41010401 294
0.82911992 11.199306 -0.49816564 417
0.40847433 10.910563 -0.58748668 405
0.011801446 10.554892 -0.66775692 348
0.98235947 8.8781223 -0.63714176 362
0.63416779 8.5255785 -0.6908505 435
0.26492953 6.9786668 -0.62942153 265
0.0096266642 6.5613899 -0.65491444 496
0.73447114 6.5956917 -0.71626276 635
0.4842279 6.4792533 -0.76326001 599
0.24162251 6.3066492 -0.80177641 675
0.010109004 6.1576366 -0.84239763 719
0.69544703 6.2058554 -0.90543848 750
0.45671555 6.0825529 -0.94209951 733
0.23313437 6.0029364 -0.98698974 796
0.011780813 5.9177208 -1.0317453 766
0.65808302 5.8447824 -1.0741917 707
0.43577945 5.749959 -1.1083556 680
0.21939471 5.6238441 -1.1378955 563
0.010669444 5.3594589 -1.1382128 413
0.58382577 5.1448789 -1.1450684 632
0.38131931 4.9966564 -1.1569233 634
0.18941835 4.8337874 -1.1658461 588
0.0093592238 4.7013111 -1.1835073 642
0.50344539 4.402245 -1.1549989 381
0.34685469 4.4933615 -1.2202289 720
0.17515451 4.4302621 -1.2479335 748
0.0078315297 4.3119578 -1.2625408 757
5.1894484 44.676079 13.67347 41
0 0 0 8
0 0 0 11
0.1336512 43.602139 11.846495 104
5.1728473 44.737534 11.840075 76
3.5209937 45.18586 11.426366 17
1.8283757 44.827477 10.853925 21
0.16428578 43.65374 10.134523 124
5.1894412 44.881046 10.098942 92
3.5139818 44.893539 9.5962505 15
1.8304397 44.496628 9.0525036 16
0.19521917 43.75613 8.4657936 122
5.1819453 44.884872 8.3660192 104
0 0 0 5
1.8766905 45.046604 7.4558015 28
0.22622555 43.844921 6.8346658 141
5.2016902 45.055901 6.6974692 112
0 0 0 0
0 0 0 12
0.25749603 43.957592 5.2183728 135
5.2038999 45.075039 5.0174007 126
3.5448468 45.08556 4.5698352 15
0 0 0 10
0.27349791 44.06348 3.6227474 121
5.2307858 45.238617 3.3762162 119
3.5986762 45.566643 2.955838 34
1.9325823 45.248779 2.5003898 25
0 0 0 5
5.2438083 45.281975 1.719313 103
1.8498657 23.319389 0.66158783 57
0.6079796 14.119406 0.26642269 309
0.095552728 13.838057 0.13042758 309
1.6747593 14.41804 0.022800099 457
1.0514146 13.224843 -0.10651316 246
0.54224676 12.441293 -0.21736974 271
0.083167449 11.747461 -0.31583306 289
1.362403 11.675615 -0.41048789 299
0.89862067 11.203967 -0.49860883 370
0.47567344 10.913836 -0.58780903 393
0.076760292 10.581567 -0.66946173 349
1.0371634 8.8748989 -0.63735515 355
0.68550742 8.5096045 -0.68988389 427
0.33245394 7.5370922 -0.67995834 331
0.049939372 6.5681725 -0.65560973 523
0.77678525 6.6068597 -0.71797967 670
0.52549654 6.4949694 -0.76547676 602
0.28013858 6.3010836 -0.80127227 652
0.047891364 6.1574588 -0.84239763 694
0.73723221 6.2329211 -0.91003031 754
0.49578974 6.1013064 -0.94545758 734
0.27049544 6.0132222 -0.98893523 790
0.048026994 5.9096556 -1.0303712 778
0.69439781 5.844542 -1.0749103 717
0.471293 5.7501135 -1.108922 651
0.25522438 5.6517677 -1.1438407 615
0.043776847 5.3866811 -1.1440296 423
0.61700773 5.1547728 -1.1480913 648
0.41181085 4.9922805 -1.1564734 630
0.21889822 4.8286495 -1.1649089 606
0.03820575 4.7011652 -1.1835073 653
0.54608643 4.5287685 -1.1890512 478
0.37642375 4.5151963 -1.2267627 716
0.20268622 4.4367967 -1.250101 722
0.034357745 4.320466 -1.2650698 751
5.4883494 44.84663 13.735717 50
3.7452197 44.626904 13.112665 19
2.0598254 44.383274 12.52248 17
0.40163031 43.648746 11.859604 99
5.4527526 44.750072 11.852026 69
0 0 0 9
0 0 0 12
0.43339056 43.778538 10.163921 130
5.4779491 44.95686 10.123374 93
3.7818878 44.782448 9.5772839 15
2.1079211 44.57951 9.071826 15
0.46463445 43.842464 8.4828892 133
5.4711514 44.966431 8.3873205 111
0 0 0 8
2.1509359 44.989895 7.4484596 14
0.49672186 43.973125 6.8549962 143
5.4853387 45.083035 6.7063799 129
0 0 0 8
2.1460776 44.724632 5.7438927 20
0.52778155 44.002846 5.2240314 123
5.4893808 45.116261 5.0256438 115
3.8266323 45.124428 4.5760684 17
0 0 0 6
0.54478377 44.135715 3.6288929 142
5.5135741 45.249229 3.3794694 117
3.8881066 45.660042 2.9633882 22
0 0 0 12
0.51958174 41.506981 1.9067487 17
5.5346274 45.356075 1.7233837 101
2.4215267 28.320299 0.8038736 44
0.69730592 14.170333 0.26745936 293
0.18045965 13.83721 0.13042758 302
1.7646528 14.419404 0.022818949 429
1.1394556 13.298845 -0.10716347 227
0.61976689 12.461699 -0.21778859 267
0.15536584 11.755726 -0.31607494 282
1.4370657 11.691835 -0.41136038 272
0.96863973 11.213172 -0.4992736 366
0.54282892 10.914701 -0.5880239 394
0.14211373 10.612829 -0.67148215 395
1.092696 8.8772783 -0.63799548 357
0.73788071 8.5072241 -0.690045 424
0.38219389 7.6045403 -0.68624181 345
0.090322003 6.5737119 -0.65620559 498
0.81950819 6.6197295 -0.71991116 637
0.56551135 6.4936013 -0.76571006 635
0.31849518 6.2933011 -0.80051613 655
0.085616782 6.1530867 -0.84185547 704
0.77607417 6.2331901 -0.91074771 748
0.53321731 6.0981498 -0.94545758 729
0.30748755 6.0134201 -0.98925942 785
0.084399462 5.9171305 -1.0317453 739
0.72963589 5.8352904 -1.074012 656
0.50734216 5.7559175 -1.1106207 680
0.29024974 5.6569471 -1.1452279 665
0.07674437 5.3804426 -1.1427832 436
0.64886922 5.1528273 -1.1485232 624
0.4412303 4.9760718 -1.1533241 639
0.24942186 4.8446913 -1.1691263 622
0.067313619 4.7192655 -1.1881458 694
0.57763803 4.5550919 -1.1968706 496
0.40446576 4.5166473 -1.227808 720
0.23030469 4.4431601 -1.2522684 774
0.060948096 4.3259315 -1.2667559 772
5.7585378 44.774151 13.724081 52
0 0 0 7
2.3343906 44.413052 12.534687 16
0.66950566 43.649319 11.860653 110
5.7518048 44.907635 11.902879 62
4.0828142 45.22327 11.447634 32
0 0 0 11
0.70267403 43.816933 10.173646 116
5.7556796 44.937889 10.126863 83
0 0 0 10
0 0 0 9
0.7344923 43.889835 8.4927673 122
5.7604303 45.037354 8.4069834 98
0 0 0 5
2.4407699 45.231991 7.4908795 19
0.76704317 43.998886 6.8596168 133
5.7777996 45.173153 6.7249327 93
0 0 0 0
2.4279153 44.848289 5.761579 13
0.79998231 44.120903 5.2385311 122
5.7806077 45.19511 5.0382833 108
4.1172318 45.251698 4.5914502 19
0 0 0 5
0.81626654 44.168411 3.6319244 135
5.8072042 45.340172 3.388859 106
4.1879859 45.851971 2.9774563 21
2.4997199 45.439995 2.5124624 17
0 0 0 8
5.818543 45.365864 1.7250797 104
2.5966201 28.319838 0.80429763 57
0.78440619 14.168783 0.26751593 211
0.26522556 13.828843 0.1303616 360
1.8626626 14.482692 0.02293676 426
1.2333838 13.426033 -0.1082473 211
0.69817144 12.4926 -0.21839944 279
0.22807498 11.784534 -0.31688118 272
1.5206827 11.774975 -0.41460603 274
1.0411077 11.246808 -0.50104624 379
0.610403 10.922132 -0.588615 397
0.20754193 10.627724 -0.67249238 350
1.1493201 8.8872232 -0.63920504 407
0.78988171 8.5005522 -0.68988389 386
0.43344709 7.6835909 -0.69360238 329
0.13095246 6.5879569 -0.65769541 516
0.86126453 6.6234498 -0.72087693 646
0.60460681 6.4820981 -0.76477671 648
0.35761014 6.3001428 -0.80165035 645
0.12344925 6.1564074 -0.84239763 650
0.81623018 6.2430305 -0.91290015 772
0.57080907 6.0967307 -0.94576287 703
0.34409723 6.0064945 -0.9884488 780
0.1210463 5.9332447 -1.0346652 775
0.76581097 5.8336301 -1.074551 668
0.54292691 5.7556291 -1.111187 682
0.32332399 5.6266818 -1.1394809 599
0.10939756 5.3622665 -1.1390438 416
0.67932278 5.1400371 -1.1465799 687
0.47074243 4.9626007 -1.1508496 615
0.27998275 4.8576279 -1.1726407 660
0.096387908 4.7245812 -1.1896105 692
0.61183023 4.5984631 -1.2092302 572
0.4325397 4.5179238 -1.2288533 728
0.2556684 4.4089899 -1.2430567 722
0.087645628 4.3331518 -1.2690039 766
6.0476074 44.845116 13.756949 54
0 0 0 10
0 0 0 7
0.93943363 43.742798 11.887395 105
6.0260854 44.862865 11.90059 62
4.3746543 45.34697 11.485525 46
0 0 0 12
0.97196996 43.832249 10.178394 102
6.0402694 44.968464 10.141915 91
0 0 0 10
2.6585524 44.612892 9.0845747 16
1.0061612 43.988544 8.5129023 103
6.0537915 45.12883 8.4308338 102
0 0 0 6
2.7163675 45.18465 7.4856582 21
1.0388869 44.073364 6.8720927 89
6.0560517 45.145676 6.7262473 102
0 0 0 7
2.7005463 44.790966 5.7562351 16
1.071218 44.137001 5.2411246 67
6.0831828 45.347931 5.0593853 125
0 0 0 12
0 0 0 10
1.0881957 44.200436 3.6350384 57
6.0900764 45.339268 3.3915205 104
4.4673123 45.805546 2.9761658 37
2.7642226 45.190594 2.499563 16
0 0 0 12
6.1237011 45.529366 1.7326932 102
3.2356968 33.057739 0.93940264 29
1.2855992 20.897776 0.39470521 141
0.34979436 13.81596 0.13025793 334
1.9542983 14.491803 0.022969747 438
1.3286223 13.549578 -0.10930706 224
0.77765954 12.533986 -0.21920224 252
0.29992068 11.764926 -0.31639746 299
1.5954515 11.784239 -0.41526911 269
1.1129446 11.26904 -0.5023315 381
0.67679006 10.908216 -0.58807766 383
0.27290213 10.632236 -0.67287123 363
1.2040975 8.8819809 -0.63934731 366
0.84271342 8.5024881 -0.69044775 404
0.48350772 7.7275057 -0.69782126 340
0.17145059 6.5900135 -0.65799338 515
0.90215755 6.6200109 -0.72109151 607
0.64436883 6.4782662 -0.76477671 646
0.39756855 6.3186212 -0.80429691 632
0.16122194 6.1555343 -0.84239763 669
0.85546154 6.2447681 -0.91390455 742
0.60948324 6.1058979 -0.94774717 701
0.38007119 5.9904833 -0.98617911 728
0.15763268 5.9392838 -1.0358675 775
0.80400342 5.8463631 -1.0777849 680
0.57793796 5.749258 -1.1106207 667
0.35746917 5.6187229 -1.138292 600
0.1427649 5.3790956 -1.1427832 432
0.70964378 5.1270671 -1.1446365 678
0.50441635 4.9916101 -1.158273 655
0.30897868 4.8432059 -1.1695948 615
0.12532412 4.721962 -1.1891222 668
0.6408354 4.6003728 -1.2107437 598
0.45663133 4.4796548 -1.2191836 676
0.28370258 4.4227076 -1.2473916 754
0.11433287 4.33637 -1.2701278 761
0 0 0 13
0 0 0 7
2.8779852 44.361855 12.529263 25
0 0 0 8
6.3289795 45.022339 11.952969 24
4.6593518 45.382938 11.50166 23
2.9349239 44.875793 10.87979 13
1.2641428 44.64629 10.369031 30
6.3209682 44.965351 10.14977 37
4.6335087 44.976685 9.6354342 15
0 0 0 11
1.2848492 44.284794 8.5715981 15
6.3499956 45.229103 8.456687 47
0 0 0 5
0 0 0 0
1.33465 44.919472 7.0051665 23
6.3621049 45.315353 6.7572165 52
0 0 0 12
2.9801946 44.84679 5.7656507 16
1.3547554 44.548462 5.2908716 16
6.3733406 45.395386 5.0689473 42
4.6897235 45.366997 4.6086421 20
0 0 0 6
1.3814156 44.909164 3.6939518 13
6.4005046 45.531147 3.4087474 23
4.7565222 45.856678 2.9813282 44
3.0321984 45.035301 2.491956 25
0 0 0 4
6.4011383 45.478069 1.7322032 20
2.4526386 23.565239 0.67006904 48
1.4133962 20.883507 0.39459211 142
0.43446657 13.810555 0.13022967 328
2.0470939 14.507264 0.02301373 434
1.4256303 13.674443 -0.11038286 175
0.85781783 12.57686 -0.22003995 275
0.37156597 11.745879 -0.31594056 277
1.6764179 11.835578 -0.4174329 297
1.1856148 11.295779 -0.50383824 403
0.74404866 10.908838 -0.5883463 393
0.33803999 10.627368 -0.67268181 386
1.2575932 8.8675127 -0.63884926 385
0.89528537 8.5011225 -0.69076991 409
0.53255278 7.7482405 -0.69997561 343
0.21188293 6.5888376 -0.65799338 532
0.94626749 6.6389575 -0.72377414 650
0.68494147 6.4820919 -0.76571006 683
0.43790388 6.3388252 -0.80719548 635
0.19898854 6.154429 -0.84239763 661
0.8927803 6.2325439 -0.91290015 708
0.64954174 6.1266127 -0.95156324 703
0.41921926 6.0224924 -0.99185342 771
0.19426554 5.9441128 -1.036898 807
0.84182096 5.8549519 -1.0803002 668
0.61153638 5.7299805 -1.1076007 652
0.3922112 5.6203346 -1.1390846 577
0.17528844 5.3634534 -1.1396669 423
0.74276716 5.1342125 -1.1472276 668
0.53659344 5.0029531 -1.1616472 627
0.33991146 4.8586755 -1.1738122 642
0.15413679 4.716258 -1.1879016 672
0.67058396 4.6068878 -1.2135183 657
0.48338291 4.4700508 -1.2173541 640
0.31123954 4.4266453 -1.2490171 704
0.14103173 4.3384647 -1.2709708 769
0 0 0 6
4.8528762 44.646534 13.149476 44
3.1754339 44.699551 12.629904 15
1.4964706 44.329803 12.051002 13
0 0 0 7
4.8773832 44.799213 11.361094 78
3.2373497 45.236012 10.971732 16
1.5440679 44.811951 10.409511 29
7.6948395 52.404003 11.839289 29
4.9094996 44.94838 9.6356421 65
0 0 0 10
1.5589659 44.344757 8.5848942 17
0 0 0 0
4.9134803 44.984825 7.9303608 85
0 0 0 7
1.6095022 44.889702 7.0019317 27
6.7741103 46.189667 6.8936586 38
4.9281907 45.046661 6.2396755 88
3.2598391 44.889984 5.7736664 23
1.6293437 44.574043 5.2949977 19
0 0 0 13
4.9468689 45.144512 4.5890374 85
0 0 0 6
0 0 0 11
0 0 0 6
4.9691052 45.20171 2.9406731 101
3.2745874 44.554798 2.4664333 19
1.5495688 41.792187 1.9210192 40
0 0 0 0
2.6010211 23.58452 0.67105848 83
1.5434966 20.901365 0.39510104 149
0.51976192 13.822618 0.13037102 342
2.1402981 14.52312 0.023059281 452
1.5211462 13.770795 -0.11123388 199
0.93860549 12.620217 -0.22089511 271
0.44544169 11.791327 -0.31723058 305
1.7582203 11.887353 -0.41963154 267
1.2588757 11.324037 -0.50543362 369
0.81422871 10.947883 -0.59071046 400
0.40312842 10.622103 -0.67249238 367
1.3113952 8.8556824 -0.63856471 372
0.94566286 8.479619 -0.68948114 393
0.5817216 7.7666769 -0.70195037 318
0.25405917 6.6331525 -0.66256207 546
0.98903412 6.6467938 -0.72527641 620
0.72514367 6.4817152 -0.76617676 671
0.47768322 6.3478899 -0.80870777 633
0.23762381 6.1758633 -0.84551513 704
0.93305439 6.2406516 -0.91490901 728
0.68811369 6.131351 -0.95293701 705
0.45638832 6.022758 -0.99233973 735
0.23084895 5.9457622 -1.0374134 764
0.87933606 5.8603773 -1.0822763 668
0.64624256 5.7222166 -1.1068457 620
0.42609569 5.6100035 -1.1374992 550
0.20785312 5.3534799 -1.1377974 418
0.77717066 5.1488676 -1.1515461 665
0.56750059 5.001503 -1.1620972 677
0.37038147 4.8652225 -1.1759207 625
0.18318519 4.7181306 -1.188634 689
0.69840282 4.5998158 -1.2127615 658
0.51091123 4.4679599 -1.2176155 618
0.33795464 4.4188933 -1.2473916 710
0.16701926 4.3212147 -1.2661937 753
0 0 0 5
5.1367002 44.702679 13.175048 78
3.4403837 44.559269 12.595995 18
0 0 0 11
0 0 0 8
5.1527286 44.773262 11.362317 92
3.5224597 45.313164 10.995481 15
1.8209757 44.8503 10.420817 22
8.016387 52.356766 11.839507 14
5.1817279 44.887287 9.6291809 93
3.4994199 44.814323 9.1371622 14
1.8336238 44.397137 8.5970516 19
0 0 0 7
5.1906524 44.964596 7.93226 118
0 0 0 0
1.8924559 45.058647 7.0299635 28
7.0935893 46.383884 6.9290109 33
5.20996 45.062809 6.2462225 149
3.5341268 44.855293 5.7718854 18
0 0 0 12
6.991087 45.713638 5.1136799 20
5.2251506 45.125164 4.5902438 120
0 0 0 4
0 0 0 6
0 0 0 4
5.2513146 45.212994 2.9434478 118
3.6321204 45.5909 2.5249753 63
0 0 0 4
0 0 0 6
2.7471879 23.581024 0.671426 106
1.6811264 21.009104 0.39732516 156
0.60469729 13.822165 0.1303993 317
2.2362039 14.554192 0.023129966 454
1.6138415 13.831721 -0.1118039 179
1.0207602 12.673021 -0.22192481 287
0.51888013 11.813338 -0.31790242 299
1.8340201 11.895107 -0.42029464 240
1.3317127 11.344873 -0.50671881 383
0.88243055 10.955621 -0.59140897 409
0.46869251 10.628402 -0.67306066 333
1.3649471 8.8425398 -0.63820893 355
0.99511087 8.4518785 -0.68770909 363
0.63508028 7.8334436 -0.7083236 334
0.29462206 6.6284862 -0.66226411 485
1.0305613 6.6455126 -0.72581297 634
0.76606584 6.4870067 -0.76734346 662
0.51702672 6.3497829 -0.80933791 614
0.27617621 6.1891356 -0.84754825 681
0.97269982 6.2436094 -0.9162004 776
0.72734946 6.1407533 -0.95507401 697
0.49260932 6.0109935 -0.99088067 760
0.26728287 5.9432497 -1.0372416 800
0.91588587 5.8587594 -1.0829951 676
0.68134123 5.7181435 -1.1068457 615
0.45906588 5.5896997 -1.1339321 533
0.24008228 5.3384228 -1.134889 424
0.80632252 5.1285691 -1.1480913 676
0.59817857 4.9979267 -1.1620972 676
0.40126362 4.8754539 -1.1789665 654
0.21200092 4.7140112 -1.1879016 679
0.72661364 4.5954442 -1.2127615 674
0.53692997 4.4532413 -1.2144793 582
0.36379343 4.4013872 -1.2430567 720
0.19288635 4.305727 -1.2619789 732
0 0 0 5
5.4193192 44.739872 13.195561 67
0 0 0 9
2.0380445 44.257977 12.037368 14
7.2438526 45.445477 12.098662 12
5.4335437 44.791817 11.375273 88
0 0 0 8
2.0984576 44.887909 10.432351 13
7.3561759 46.150154 10.446008 13
5.4631963 44.905136 9.6400194 91
3.7760575 44.812511 9.141346 16
0 0 0 10
0 0 0 8
5.4715672 44.973942 7.9396825 118
0 0 0 12
2.176403 45.202122 7.0542989 27
7.4265938 46.644299 6.9745884 17
5.4987025 45.131283 6.2602725 122
3.821799 44.980019 5.7908435 14
2.1817849 44.664753 5.3085542 24
7.3197412 45.97319 5.1476417 13
5.5153108 45.201878 4.6014032 116
0 0 0 5
2.2175581 45.074223 3.7102578 13
0 0 0 5
5.5431828 45.298782 2.9511917 124
3.9142692 45.596611 2.5265741 27
0 0 0 5
0 0 0 5
2.8982799 23.616308 0.67292434 84
1.81507 21.057165 0.3984372 125
0.69283599 13.885109 0.13103075 353
2.3316238 14.578708 0.023191229 437
1.7057557 13.879123 -0.11226954 166
1.1076583 12.772107 -0.22377476 278
0.59195554 11.821913 -0.31822494 260
1.9182153 11.953691 -0.42277253 255
1.402769 11.348386 -0.50725061 373
0.94972259 10.950994 -0.59146267 393
0.53580153 10.663203 -0.67545992 351
1.4188617 8.8320284 -0.63806665 401
1.0452352 8.4317656 -0.68658143 367
0.68477827 7.8482509 -0.71002913 373
0.33574072 6.635498 -0.663158 481
1.0724267 6.6459351 -0.72656411 646
0.80769289 6.4969683 -0.76909357 635
0.55745023 6.3632908 -0.81148034 621
0.31485018 6.2011776 -0.84944582 681
1.0105165 6.2345929 -0.91576999 722
0.76794904 6.1597109 -0.95873731 711
0.53043574 6.0186701 -0.99266392 734
0.30359402 5.9385462 -1.0367262 770
0.95213312 5.8549714 -1.0833544 656
0.71616995 5.7119069 -1.1064682 612
0.49266523 5.5789666 -1.1323467 500
0.27273384 5.3348956 -1.1344736 474
0.83809078 5.1254525 -1.1485232 650
0.6287123 4.9931955 -1.1618723 655
0.43065715 4.8670897 -1.1775608 675
0.24102058 4.7145586 -1.1883898 679
0.7552681 4.5937638 -1.2135183 690
0.56048036 4.4201779 -1.2063775 470
0.39334828 4.4278369 -1.2511846 753
0.21993698 4.3169227 -1.2656318 794
0 0 0 6
5.7093763 44.828587 13.23181 62
0 0 0 11
2.3137937 44.325588 12.059392 13
0 0 0 9
5.724349 44.88364 11.407298 88
0 0 0 11
0 0 0 12
0 0 0 11
5.7578573 45.021141 9.6723242 68
4.0581894 44.86853 9.1576796 17
2.3890793 44.572269 8.6359911 15
0 0 0 9
5.7657876 45.083149 7.9650569 118
0 0 0 5
2.4530206 45.175091 7.0522966 21
0 0 0 11
5.785336 45.17334 6.2709126 125
4.1240997 45.24514 5.828124 16
2.4636545 44.793308 5.3255296 19
7.6039619 45.941139 5.1491799 15
5.8047104 45.261925 4.6110549 121
0 0 0 3
0 0 0 5
0 0 0 4
5.8411374 45.4203 2.9613879 130
4.2187686 45.841183 2.541513 27
0 0 0 6
0 0 0 4
3.0442827 23.607002 0.67317873 78
1.9494827 21.102379 0.39951155 143
0.78137797 13.940499 0.13159622 347
2.4218533 14.569059 0.023199083 451
1.8067646 13.991371 -0.11326507 142
1.189798 12.805888 -0.22449031 250
0.66667086 11.856982 -0.31927302 283
1.9982661 11.982113 -0.4242034 283
1.4745618 11.356407 -0.50800401 348
1.0179149 10.955897 -0.59205365 373
0.60099483 10.655728 -0.67520732 332
1.4707278 8.8093824 -0.6370706 385
1.095665 8.415309 -0.685776 355
0.73208749 7.8349767 -0.70922124 338
0.37830958 6.6660972 -0.6664356 480
1.1131852 6.6392298 -0.72656411 640
0.85049939 6.5145407 -0.77177697 679
0.59731793 6.3686404 -0.81261462 615
0.35385126 6.2159448 -0.85175008 697
1.0492452 6.2312031 -0.9162004 741
0.80611473 6.1578231 -0.95919532 718
0.56744826 6.016284 -0.99282604 729
0.34058988 5.9464068 -1.0384439 774
0.9847635 5.8296189 -1.0797611 611
0.75043517 5.7015629 -1.1053357 605
0.52559692 5.5621772 -1.1295724 468
0.3050155 5.3253088 -1.1328115 493
0.86952418 5.1202135 -1.1485232 622
0.6595934 4.9911757 -1.1623222 643
0.45932183 4.8517737 -1.174515 640
0.26961133 4.7071824 -1.1869252 664
0.78262645 4.5842738 -1.2122571 714
0.5814814 4.3707285 -1.1938329 430
0.41841525 4.4032998 -1.2449532 687
0.24696811 4.3250737 -1.2684419 782
7.9729681 46.208145 14.255499 15
5.9978037 44.893547 13.261597 57
4.2843952 44.743252 12.668153 12
2.5876381 44.343311 12.068307 14
0 0 0 6
6.0130138 44.947624 11.432722 76
0 0 0 12
2.6568382 44.989079 10.462654 16
0 0 0 11
6.0507665 45.110012 9.6992111 108
0 0 0 10
2.6652186 44.601856 8.6447296 17
0 0 0 7
6.0565772 45.153332 7.9838724 110
0 0 0 0
2.7259898 45.090153 7.0415154 29
9.0843449 52.869499 7.9214988 13
6.0711088 45.20179 6.2799153 110
4.4023137 45.225895 5.8290148 24
2.743304 44.85664 5.33496 15
7.9035497 45.997456 5.16083 14
6.0996957 45.35463 4.6242247 114
0 0 0 5
0 0 0 9
0 0 0 7
6.1219883 45.400417 2.9624848 110
4.5146055 45.963486 2.5497813 42
2.7917087 45.259171 2.0829051 15
8.0551386 46.781826 1.7904345 23
3.2009947 23.676041 0.67569482 57
2.0817721 21.118874 0.40005815 159
0.87000483 13.985344 0.13206746 312
2.5078011 14.534215 0.023167666 394
1.9286662 14.246581 -0.11542472 165
1.2751547 12.867 -0.22569452 230
0.74190104 11.892577 -0.32034805 275
2.0799308 12.016894 -0.42587858 273
1.5469099 11.366943 -0.50889033 362
1.0863016 10.96137 -0.59269845 375
0.66543114 10.6369 -0.67426032 339
1.5257751 8.8060894 -0.63749743 367
1.1463364 8.4015141 -0.68521214 388
0.77975321 7.8263731 -0.70886219 352
0.42182878 6.7053604 -0.67060697 482
1.153561 6.6303153 -0.72634953 614
0.8896482 6.5032954 -0.77107692 625
0.63865387 6.3875585 -0.81551319 642
0.39223441 6.2176118 -0.85229224 666
1.0906954 6.2431703 -0.91892678 766
0.84549475 6.1645103 -0.96102697 711
0.60385942 6.0077806 -0.99201548 719
0.37669572 5.9383059 -1.0374134 784
1.0208545 5.8254046 -1.0801204 647
0.78540522 5.6968513 -1.1053357 636
0.55726099 5.5344667 -1.1246181 436
0.33830452 5.3330994 -1.134889 484
0.90024728 5.1109352 -1.1476594 646
0.69100779 4.9928255 -1.1636719 685
0.49083924 4.8662748 -1.1787323 624
0.29842758 4.7044716 -1.1866809 675
0.81343931 4.5946307 -1.2162929 708
0.60216326 4.323102 -1.181811 374
0.44542551 4.4006495 -1.2449532 712
0.27344099 4.3225188 -1.2681608 758
0 0 0 7
6.2738166 44.860649 13.263 33
0 0 0 8
0 0 0 9
0 0 0 7
6.2959557 44.961742 11.445923 37
4.6598964 45.471237 11.058264 15
2.9335968 44.983593 10.465368 17
0 0 0 10
6.3603468 45.306423 9.74965 32
4.6382618 45.10487 9.2168407 18
2.9458792 44.691448 8.6654339 23
0 0 0 10
6.362823 45.324062 8.020813 31
4.7088895 45.557262 7.5739245 13
0 0 0 5
0 0 0 4
6.4274983 45.726788 6.3582134 37
4.6825924 45.225658 5.8325777 22
0 0 0 12
8.2206755 46.144779 5.1829219 19
6.3977003 45.457237 4.6386018 28
4.7319889 45.470322 4.1846075 29
0 0 0 8
0 0 0 5
6.4241467 45.52998 2.9734554 15
4.7741485 45.720413 2.5378745 30
3.0214205 44.534561 2.0503719 42
0 0 0 5
3.3952091 24.002367 0.68558955 28
2.2142329 21.133545 0.40058589 144
0.96016622 14.043591 0.13267064 320
2.5874259 14.465398 0.023082843 431
2.0401645 14.404774 -0.11680561 154
1.3603636 12.918594 -0.22674167 228
0.81937033 11.953623 -0.3221218 258
2.1702151 12.096373 -0.42915913 245
1.6240886 11.409657 -0.51123911 350
1.1561532 10.979325 -0.59404171 392
0.73198545 10.651534 -0.67545992 366
1.5746665 8.7680912 -0.63543415 377
1.1954719 8.3775482 -0.6838429 374
0.82744581 7.81847 -0.70859289 333
0.46385553 6.7155504 -0.67189813 479
1.196692 6.6368108 -0.72785175 623
0.93178529 6.5134449 -0.77294368 622
0.67793989 6.3845057 -0.8156392 675
0.43024069 6.2131114 -0.85202116 651
1.13004 6.2422032 -0.91978776 736
0.88456619 6.1680107 -0.96240073 736
0.64123458 6.0088677 -0.99282604 678
0.41292018 5.9329343 -1.036898 743
1.0572822 5.8229032 -1.0808392 612
0.81838447 5.6783171 -1.1026932 592
0.59058428 5.5250955 -1.1234291 430
0.3712931 5.3348265 -1.13572 485
0.93334323 5.1149206 -1.1498188 673
0.72093266 4.9836702 -1.1625471 645
0.52068889 4.8631716 -1.1787323 642
0.32769203 4.7083564 -1.1881458 667
0.84126711 4.5876498 -1.2157884 739
0.62033635 4.2620149 -1.1661302 326
0.47231621 4.3968763 -1.2446822 678
0.29896137 4.3063984 -1.2639458 749
0 0 0 6
6.6273537 45.357849 13.421767 17
4.83459 44.700703 12.671951 51
0 0 0 11
0 0 0 0
