# .PCD v0.7 - Point Cloud Data file format
VERSION 0.7
FIELDS x y z intensity
SIZE 4 4 4 4
TYPE F F F F
COUNT 1 1 1 1
WIDTH 1338
HEIGHT 1
VIEWPOINT 0 0 0 1 0 0 0
POINTS 1338
DATA ascii
2.3382699 -3.9314983 -1.2385232 954
2.5619881 -3.9614148 -1.3278596 895
2.5905523 -3.6925292 -1.3207082 975
3.8262696 -7.0381379 2.4354477 562
4.1930175 -7.0588641 2.4039698 769
4.56742 -7.0735149 2.3730915 746
3.1551471 -4.5092616 1.4952649 1009
3.8085904 -6.9968853 2.0943758 765
4.1798058 -7.0394206 2.0639868 792
4.5690522 -7.0841794 2.0393877 691
3.1716075 -4.5395303 1.2856134 1095
3.8058481 -6.9918475 1.7793945 638
4.1765184 -7.0394802 1.7442991 770
4.5441713 -7.0510044 1.7051256 746
3.1665158 -4.5389886 1.0707611 1001
3.7939665 -6.9671235 1.4688917 642
4.1654887 -7.0208898 1.430648 658
4.5408096 -7.0538974 1.3872966 718
3.1739614 -4.556437 0.86559594 984
3.8080728 -6.9930277 1.1758224 677
4.1533408 -7.0031996 1.1211309 709
4.5267997 -7.034831 1.073123 683
3.1583443 -4.5407734 0.65661412 855
3.78897 -6.9579482 0.87607503 778
4.1477351 -6.9965305 0.82187665 631
4.5331187 -7.052763 0.76742566 774
3.1835928 -4.580483 0.45860985 855
3.7870629 -6.9573364 0.58726126 733
4.1302538 -6.9725895 0.52406687 649
4.515161 -7.0302181 0.46128139 725
3.1816185 -4.5793476 0.25613591 808
3.774915 -6.9379025 0.29790321 770
4.1246057 -6.9686007 0.22901988 709
4.4998755 -7.0118003 0.15706405 708
3.190413 -4.5971408 0.05274028 812
3.7608418 -6.9177885 0.012368446 622
4.1238861 -6.9701605 -0.065022238 740
4.4795904 -6.9882388 -0.14488988 696
3.1982868 -4.6102037 -0.15084845 746
3.7501662 -6.9067674 -0.27444965 722
4.0480361 -6.8528709 -0.35307232 478
3.7075105 -5.7837806 -0.36966416 525
2.6741464 -3.8561132 -0.29687908 512
3.0756104 -5.6667805 -0.45990887 584
2.6213965 -4.4412699 -0.41674948 526
2.6674986 -4.1661439 -0.44585517 753
2.7074089 -3.9069893 -0.4744505 743
2.5804486 -4.7623773 -0.5845992 829
2.6275899 -4.4553151 -0.60762119 709
2.6704776 -4.1740041 -0.62949908 757
2.7086136 -3.9101856 -0.65074027 755
2.5949292 -4.7970948 -0.79078788 886
2.6472266 -4.4921937 -0.80533326 750
2.680191 -4.1940222 -0.81773591 870
2.7086797 -3.913198 -0.82975894 947
2.6030877 -4.8182034 -1.0001714 879
2.6671882 -4.5332999 -1.0109594 581
2.677886 -4.1920271 -1.0057157 939
2.7246292 -3.93624 -1.0166843 1034
2.6546097 -4.9238386 -1.2370538 815
2.3503149 -3.9995148 -1.070992 900
2.8441784 -4.4540586 -1.2736213 718
2.7960529 -4.0394254 -1.2367263 667
2.467947 -4.5871902 -1.3577986 808
2.3336351 -3.9790761 -1.2489771 880
2.5407398 -3.9819293 -1.3294853 905
2.5678465 -3.7083549 -1.3207082 925
3.7626808 -7.0235319 2.4223585 705
4.1316795 -7.0538197 2.3935728 729
4.5135894 -7.0851722 2.3676662 818
3.1504514 -4.5618873 1.506277 1078
3.7555289 -7.0013728 2.0887818 755
4.121346 -7.0389948 2.0564086 769
4.5056701 -7.0809202 2.0304523 730
3.163048 -4.5869722 1.2935283 1055
3.7513423 -6.9935675 1.7739408 661
4.0986753 -7.0058818 1.7297094 684
4.4897799 -7.061388 1.7009424 822
3.1653316 -4.5971479 1.0798788 907
3.7385921 -6.9668779 1.463976 737
4.100944 -7.0097594 1.4232256 696
4.4794593 -7.0533104 1.3817494 706
3.177851 -4.6222353 0.8743751 921
3.7384295 -6.9665751 1.1674956 745
4.0982895 -7.008028 1.1178572 750
4.4755759 -7.0499144 1.0712144 737
3.1686404 -4.6157374 0.66463023 824
3.7335162 -6.9574189 0.87310749 755
4.0665669 -6.9565692 0.81423593 606
4.4556279 -7.0266204 0.76159179 713
3.1886899 -4.6484203 0.4634442 788
3.7103617 -6.9171677 0.58193797 683
4.0712872 -6.9702272 0.52200186 647
4.4446845 -7.0147758 0.45847005 702
3.1856616 -4.6457438 0.25875142 721
3.7171631 -6.9327526 0.29669714 735
4.0636301 -6.9626975 0.22800213 700
4.442327 -7.0164714 0.15655516 731
3.1858785 -4.6512799 0.053136118 721
3.6984906 -6.9037123 0.012302472 640
4.0548377 -6.9504189 -0.064604759 716
4.4216642 -6.9919319 -0.14440121 737
3.198741 -4.6718073 -0.15221906 647
3.6949866 -6.9058557 -0.27350736 738
4.0240126 -6.9086576 -0.35466772 749
3.6666152 -5.7979808 -0.36912686 397
2.6662185 -3.8955088 -0.29864696 529
2.8446176 -5.3187647 -0.43023965 689
2.590085 -4.4503794 -0.41610512 353
2.6631613 -4.216115 -0.44944575 753
2.6946199 -3.939955 -0.47643688 738
2.5736558 -4.820219 -0.58974987 827
3.4374804 -5.9111505 -0.80327803 291
2.6802921 -4.2465172 -0.63794279 822
2.7007864 -3.9504509 -0.65467107 720
2.5840666 -4.8478599 -0.79652756 888
3.335588 -5.7405448 -1.0254414 574
2.6765094 -4.2454476 -0.82454503 841
2.7207386 -3.9826183 -0.84092313 1015
2.5887296 -4.8627405 -1.0061003 893
3.033052 -5.2282796 -1.1617727 738
2.6803331 -4.2531581 -1.0164169 977
2.7175307 -3.9779227 -1.0231243 991
2.608315 -4.9098544 -1.2294964 800
2.3389194 -4.0366235 -1.0770657 849
2.6841426 -4.2608514 -1.2136421 835
2.8598323 -4.186224 -1.2762741 655
2.4420202 -4.6065216 -1.3590598 788
2.3362346 -4.0401134 -1.2636125 879
2.4629292 -3.9127216 -1.301308 686
2.5504591 -3.7319643 -1.3235182 960
3.6953964 -7.0007963 2.4066517 724
4.0705614 -7.0482879 2.3831756 666
4.4485207 -7.0785065 2.3562729 817
3.1696854 -4.650507 1.5290873 1051
3.6980376 -6.996923 2.0806456 605
4.0596557 -7.032239 2.0471189 772
4.4373341 -7.0689192 2.0191655 772
3.1655343 -4.651391 1.3061923 942
3.6887515 -6.979353 1.7645608 784
4.0482802 -7.0181909 1.726583 632
4.4213729 -7.0489554 1.691381 761
3.1607924 -4.651401 1.0880468 817
3.6916373 -6.9818635 1.4623375 812
4.0366926 -6.9981017 1.4158031 760
4.4146204 -7.0463839 1.3750601 777
3.1721754 -4.6751704 0.88068998 811
3.6798909 -6.9596477 1.1625288 764
4.0339336 -6.9961395 1.1119916 816
4.3995938 -7.0251241 1.0633258 761
3.1759057 -4.6877084 0.67217481 755
3.6758888 -6.9520788 0.86959046 697
4.0173473 -6.9701843 0.81292903 686
4.3902483 -7.0183682 0.75776339 751
3.1869264 -4.7075133 0.46737731 671
3.6645868 -6.9336319 0.58142042 729
4.0159912 -6.9734573 0.52038854 623
4.3766856 -7.0021214 0.45587921 733
3.194047 -4.7198057 0.26177987 549
3.6582172 -6.9245052 0.29537797 724
4.0033822 -6.9571767 0.22701266 696
4.3732386 -7.0020432 0.15563157 736
3.1835988 -4.7096772 0.053579073 476
3.6364546 -6.889133 0.012236499 711
3.9946642 -6.9448299 -0.064323768 737
4.3590984 -6.9875441 -0.14375548 739
3.215349 -4.7584367 -0.15439594 318
3.6255116 -6.8771219 -0.27148318 736
3.9725909 -6.9176245 -0.35387003 715
3.5791748 -5.7373428 -0.36386129 569
2.6741073 -3.9589353 -0.30224589 543
2.6045332 -4.9425502 -0.39850706 706
3.310812 -5.7699065 -0.53756976 578
2.6635768 -4.2746406 -0.45393389 772
2.6932178 -3.9902301 -0.48050898 758
2.5662496 -4.8781548 -0.59490049 811
3.6580224 -6.3801641 -0.86394686 407
2.6641479 -4.2788839 -0.64033729 835
2.6920118 -3.9899449 -0.65846622 786
2.5685365 -4.8907857 -0.80097586 843
3.9129062 -6.830246 -1.2157845 634
2.658226 -4.2743592 -0.82697678 817
2.7039604 -4.010673 -0.8433277 966
2.6442907 -5.041441 -1.0396968 650
2.9945767 -5.2357097 -1.1593189 801
2.6603956 -4.2795134 -1.018795 838
2.7034612 -4.0099325 -1.0270714 933
2.5844784 -4.9378777 -1.2325194 819
2.3348899 -4.0872793 -1.0867386 825
2.3849695 -3.8379564 -1.0889977 692
2.7305515 -4.0501146 -1.2296466 349
2.4293883 -4.6514392 -1.3678881 826
2.3998415 -4.2095037 -1.3119618 785
2.3814955 -3.8353517 -1.2706921 870
2.5371714 -3.7618654 -1.3285762 943
3.6382453 -6.9961767 2.3973439 726
4.0044446 -7.0331006 2.3696878 737
4.3826895 -7.0696735 2.3443367 793
3.1690977 -4.7115064 1.5427212 950
3.6389556 -6.9886007 2.071492 633
3.9914896 -7.0131941 2.0344069 742
4.3652215 -7.049736 2.0059974 756
3.1760371 -4.7289486 1.3224744 866
3.6372938 -6.9854088 1.7604162 811
3.9833848 -7.0046401 1.7172039 761
4.3610229 -7.0484514 1.6848074 691
3.1764851 -4.7367568 1.103433 710
3.6378253 -6.9834538 1.4579679 808
3.9771218 -6.9936266 1.409934 806
4.3547044 -7.0464826 1.3698392 811
3.1758642 -4.7429862 0.88977718 627
3.6151803 -6.9399824 1.1555169 767
3.9566607 -6.9604735 1.1024432 755
4.3465014 -7.035954 1.0609082 784
3.174679 -4.748383 0.678069 454
3.5991819 -6.9092712 0.86145729 615
3.9627066 -6.9739423 0.81051612 734
4.3152032 -6.9934773 0.75220299 724
3.1751444 -4.7526689 0.46991736 309
3.6086173 -6.9303355 0.57927632 736
3.9539125 -6.9641237 0.5178718 646
4.3173943 -7.0024967 0.45417035 776
4.7544751 -7.1193566 0.3932434 188
3.5985899 -6.9140239 0.29398343 753
3.9463146 -6.9563961 0.22619282 739
4.3003006 -6.9802251 0.15455721 761
4.7677522 -7.1473384 0.080976494 384
3.5821195 -6.8882489 0.012195658 725
3.9352057 -6.9396353 -0.064050801 732
4.2894182 -6.9707308 -0.14286542 713
4.6429863 -6.962934 -0.22499613 92
3.5726519 -6.8788395 -0.27068052 765
3.913336 -6.9123111 -0.35236323 757
3.5297742 -5.7362342 -0.36241058 641
2.6624968 -3.9943688 -0.30369809 512
2.7956791 -5.3851418 -0.43280101 796
3.9123557 -6.9162092 -0.64211965 649
2.6357336 -4.2883582 -0.45366463 682
2.6819222 -4.0265565 -0.48289266 729
2.7572324 -5.3201642 -0.64672899 764
3.8983405 -6.8970504 -0.93068248 758
2.6388812 -4.2968411 -0.6405893 701
2.6762648 -4.0195827 -0.66063488 692
2.8809144 -5.5683241 -0.90902585 695
3.8748109 -6.861011 -1.2170057 454
2.6396885 -4.3032064 -0.82940859 656
2.6994905 -4.0575361 -0.84968269 1005
2.8278089 -5.4726992 -1.1250356 367
2.6464767 -4.693686 -1.0356859 851
2.6612425 -4.3400431 -1.0292981 607
2.6934352 -4.0484343 -1.0326804 885
2.5532367 -4.9519072 -1.2320875 933
2.6315372 -4.6729074 -1.2381307 822
2.3623915 -3.8541758 -1.0894663 860
2.6863115 -4.0377274 -1.2208582 353
2.3968174 -4.6585135 -1.3656179 835
2.4344985 -4.3318567 -1.3454142 745
2.3619394 -3.8564594 -1.2728597 977
2.5379694 -3.8133144 -1.3412213 893
3.5791092 -6.9868612 2.3865817 758
3.9485319 -7.0349426 2.3621006 768
4.3261733 -7.0750823 2.3372836 746
3.1604085 -4.7614155 1.5526844 729
3.5809984 -6.9815388 2.0628469 757
3.9294043 -7.003727 2.0246286 686
4.3152971 -7.0656047 2.0029407 775
3.1727912 -4.7873216 1.3333292 561
3.576993 -6.9737296 1.7519084 823
3.919765 -6.9922652 1.7082417 797
4.2962523 -7.0399451 1.6764412 708
3.1571133 -4.7708955 1.1068521 275
3.5666254 -6.9505291 1.4464978 789
3.922575 -6.9972777 1.4057912 787
4.2882786 -7.0351605 1.3624972 811
4.7328529 -7.1629477 1.3382852 272
3.5630445 -6.9435511 1.1524491 789
3.9012864 -6.9621506 1.0988966 802
4.2758946 -7.0175996 1.0541646 751
4.7515836 -7.2022219 1.0242944 527
3.5585349 -6.934763 0.86189693 673
3.8950441 -6.953856 0.80538887 751
4.2571969 -6.9951534 0.74955946 777
4.759203 -7.2192521 0.71089858 619
3.5400825 -6.9017687 0.5750621 730
3.8979478 -6.9647412 0.51612943 616
4.2525573 -6.9930253 0.45185512 720
4.7354374 -7.1859307 0.39530829 601
3.5355828 -6.8959594 0.29228738 753
3.8879445 -6.9525609 0.22528815 761
4.2464867 -6.9885364 0.15416141 735
4.7084131 -7.1530714 0.080712602 533
3.5311239 -6.8931885 0.012165813 790
3.8837686 -6.9479399 -0.063906297 753
4.2315216 -6.9721313 -0.14235929 679
4.5935817 -6.9812708 -0.22467363 254
3.5267351 -6.8935137 -0.2704013 807
3.8562443 -6.9100218 -0.35103375 679
3.4841492 -5.7407117 -0.36133599 649
2.6543903 -4.0356445 -0.30559224 561
2.7580426 -5.3933139 -0.43208954 812
2.6101549 -4.6809878 -0.43310049 708
4.1706567 -6.8799653 -0.72510934 387
2.6752002 -4.0703773 -0.48617023 725
2.7078106 -5.3042178 -0.64275867 767
2.608819 -4.6824341 -0.62967199 864
4.1826196 -6.9051356 -1.0255983 647
2.6733112 -4.0690503 -0.66605657 713
2.5779765 -5.058609 -0.82321721 618
2.6068487 -4.6827412 -0.82777148 832
4.1190629 -6.8082509 -1.3073399 338
2.6977909 -4.1094356 -0.8570683 1003
2.5741935 -5.0577302 -1.0364629 846
2.618104 -4.7106948 -1.0358747 879
3.0834627 -5.0985541 -1.204679 759
2.6932375 -4.1025 -1.0422364 871
2.5183828 -4.9587741 -1.2299281 875
2.612273 -4.7060046 -1.2426296 384
2.3507688 -3.8885658 -1.0950894 876
2.6801126 -4.0825071 -1.2294025 673
2.3773742 -4.6912594 -1.3709151 851
2.4233081 -4.3745766 -1.3540386 718
2.3571451 -3.9021888 -1.2831552 999
2.5234797 -3.8424528 -1.3459984 836
3.5271206 -6.9907527 2.3804734 672
3.8774173 -7.0086527 2.3452406 735
4.2533536 -7.052865 2.3212786 723
4.5856667 -7.0015478 2.2739668 382
3.5245743 -6.9766202 2.0549648 750
3.863363 -6.9861269 2.01265 674
4.2447805 -7.0469904 1.990243 732
4.6174722 -7.0608587 1.9586099 770
3.5156531 -6.9589615 1.7427465 802
3.8654354 -6.9956393 1.7032394 808
4.2337718 -7.0342684 1.6688716 803
4.6779828 -7.1643033 1.6554343 196
3.5052822 -6.9354248 1.4388511 787
3.8586066 -6.9832807 1.3981961 803
4.2246976 -7.0275178 1.3559711 811
4.6979866 -7.205924 1.3409036 567
3.5123403 -6.9493904 1.1498196 843
3.8532252 -6.9764175 1.097396 833
4.2102752 -7.0062957 1.0485661 800
4.6509595 -7.1446896 1.0120344 655
3.50157 -6.9280806 0.8583799 700
3.8369145 -6.9497523 0.80217171 735
4.2111201 -7.0160198 0.74901253 813
4.5854797 -7.0494823 0.69139719 746
3.4972179 -6.9224701 0.57498813 737
3.8416433 -6.9640617 0.51432252 632
4.1864591 -6.9804535 0.44937453 728
4.5638323 -7.0188823 0.38457093 683
3.4864466 -6.9041433 0.29172203 745
3.8297703 -6.9482722 0.2243835 762
4.1793704 -6.9741521 0.1532755 725
4.5451546 -6.9981723 0.078648612 653
3.4788518 -6.8950839 0.012131256 789
3.8193491 -6.9322267 -0.063545011 736
4.1732569 -6.9722271 -0.14183572 642
4.5430384 -6.9975867 -0.22429739 645
3.4758265 -6.8980665 -0.26973823 765
3.8065503 -6.920423 -0.35036898 626
3.4324484 -5.7345643 -0.35961661 644
2.6409874 -4.0694361 -0.30691817 494
2.5620229 -5.0867562 -0.40626231 728
3.7791803 -6.8763466 -0.63406491 619
4.1452284 -6.9336367 -0.72807151 789
2.6685822 -4.1151013 -0.48954707 727
2.5523949 -5.0764585 -0.61324972 796
2.5977271 -4.7305636 -0.63398886 842
4.1350842 -6.922153 -1.024338 733
2.676857 -4.1294398 -0.67324036 711
2.5499966 -5.0805235 -0.82422167 819
2.6056399 -4.7489014 -0.83662468 846
4.1009741 -6.8732247 -1.3149595 491
2.6869855 -4.1482363 -0.86170572 951
2.5558956 -5.0989337 -1.0416731 870
2.6108525 -4.7662888 -1.0445573 881
2.7774849 -4.6569061 -1.0962796 638
2.7015176 -4.170671 -1.0553242 617
2.4988286 -4.995965 -1.2353264 635
2.5861545 -4.7270737 -1.2439793 422
2.3557391 -3.9513481 -1.1086785 890
2.6671379 -4.1175952 -1.2350173 766
2.355026 -4.7187457 -1.3746985 893
2.4241729 -4.4401956 -1.3697194 769
2.343503 -3.9339454 -1.2888449 949
2.5228183 -3.8933015 -1.3583624 895
3.4705367 -6.9848452 2.3711658 619
3.8274484 -7.0196729 2.3410256 796
4.1903181 -7.0457401 2.3104277 845
4.5688081 -7.0700784 2.2870762 804
3.4636066 -6.9617472 2.0442855 766
3.8102152 -6.9909692 2.0072718 753
4.1850805 -7.0453272 1.9824833 685
4.563498 -7.0726886 1.9540871 828
3.4589767 -6.9524422 1.7357658 795
3.8027928 -6.9831505 1.6944857 796
4.1690226 -7.0238776 1.6603062 798
4.54567 -7.0558653 1.6239023 674
3.4508312 -6.9330349 1.4339354 753
3.795429 -6.9696283 1.3907735 820
4.1568446 -7.0117221 1.3479764 834
4.5435686 -7.0634298 1.3091753 824
3.4577317 -6.9468989 1.1458753 827
3.801821 -6.9842677 1.0949408 836
4.1525421 -7.0072522 1.0448763 791
4.5168781 -7.0327229 0.99223 808
3.4412785 -6.9138427 0.85398358 694
3.7884932 -6.962677 0.80096531 801
4.141108 -6.9963078 0.74418139 750
4.5130711 -7.0321922 0.6869725 763
3.4449039 -6.9241552 0.57336158 733
3.7778683 -6.9489269 0.51148313 641
4.1318583 -6.9862432 0.44810668 749
4.4942493 -7.0055542 0.38232252 676
3.4328938 -6.9030366 0.29077977 776
3.7574818 -6.9171815 0.22263072 708
4.1131005 -6.9600706 0.1524085 722
4.4870229 -7.0023551 0.07838472 680
3.4262445 -6.8957019 0.012095127 806
3.7590866 -6.9230161 -0.063247964 706
4.1039696 -6.9529281 -0.14092819 620
4.4762917 -6.9882927 -0.22311488 733
3.4121125 -6.8762922 -0.26806304 772
3.7454481 -6.9093971 -0.34864065 585
3.3834925 -5.7322993 -0.35816589 650
2.6321127 -4.1107788 -0.30881235 493
2.6708195 -5.3847547 -0.42874551 780
3.0405173 -5.6136556 -0.51590264 707
2.6312118 -4.4631252 -0.46694961 656
2.6593702 -4.1565428 -0.49252665 678
2.5503144 -5.1508298 -0.62033182 812
2.5875599 -4.7813525 -0.63865566 825
2.6313455 -4.4669151 -0.658611 722
2.6717539 -4.1775045 -0.67839098 771
2.5398233 -5.1386595 -0.83110929 846
2.603246 -4.8143516 -0.84532517 841
2.6300888 -4.4701324 -0.85210544 654
2.6736832 -4.1837378 -0.8656562 949
2.5485089 -5.1630368 -1.0515544 870
2.6030164 -4.82197 -1.0532399 873
2.7448831 -4.6671019 -1.0946944 564
3.0614548 -4.7905169 -1.2073905 567
2.4914231 -5.0585036 -1.2469865 710
2.5871572 -4.7986007 -1.2586012 716
2.3516505 -4.0000892 -1.1182845 846
2.6715882 -4.1804595 -1.2489322 813
2.3320031 -4.7452655 -1.3782299 897
2.4037428 -4.4677367 -1.3736396 758
2.3368726 -3.9781301 -1.2985985 922
2.5019836 -3.9135594 -1.3600484 920
3.4149992 -6.980226 2.3624396 733
3.7638636 -7.0049825 2.3283803 717
4.12607 -7.0356174 2.2987628 841
4.5191154 -7.0882144 2.2839301 755
3.4080606 -6.9568133 2.0366576 758
3.7562363 -6.9937143 2.0014048 797
4.1216307 -7.0364876 1.9728425 707
4.4964762 -7.0635786 1.9439108 810
3.4020841 -6.9446135 1.7285671 780
3.7436869 -6.9761896 1.6871909 783
4.1105018 -7.0231085 1.6541313 786
4.4785914 -7.0463376 1.6153544 786
3.4000039 -6.9373026 1.4304762 807
3.7446749 -6.9780307 1.3878391 804
4.1022916 -7.0175061 1.344224 851
4.4763188 -7.0536351 1.3022445 784
3.4058986 -6.9493294 1.1428076 844
3.7509339 -6.9926229 1.0926218 829
4.0889506 -6.997488 1.0396595 764
4.447597 -7.0192032 0.98645359 797
3.3887303 -6.9143 0.85145569 729
3.7367666 -6.9691315 0.7990551 806
4.0805326 -6.9914832 0.740991 784
4.439981 -7.0125961 0.68238389 741
3.3913848 -6.9227734 0.57151324 778
3.7134817 -6.9315133 0.50851464 656
4.0748301 -6.9873137 0.44656318 746
4.4420972 -7.0186486 0.38154247 701
3.3684998 -6.8790975 0.28889528 726
3.7045896 -6.9207182 0.22200876 735
4.0557189 -6.9601245 0.15186188 721
4.4290118 -7.0060887 0.078120835 725
3.3592589 -6.866293 0.012007163 744
3.7028561 -6.9203825 -0.063015141 672
4.0476503 -6.9546466 -0.14045697 626
4.4210463 -6.996191 -0.22249676 699
3.3593266 -6.8755488 -0.26722547 770
3.6888614 -6.9058127 -0.34731111 595
3.3311784 -5.7236094 -0.35633907 642
2.6270936 -4.1589146 -0.31121162 545
2.6355402 -5.3965597 -0.42838976 747
2.7399092 -5.1336174 -0.47023261 633
3.9281898 -6.7575269 -0.70446378 332
2.6609032 -4.2156968 -0.49759197 698
2.5448022 -5.2200022 -0.62677014 844
2.5796707 -4.8374519 -0.64402252 829
3.3462894 -5.7611313 -0.84638953 483
2.6709192 -4.233202 -0.68476146 812
2.5376928 -5.2146583 -0.8408668 852
2.5889926 -4.8590169 -0.8503623 832
3.3339767 -5.7468596 -1.0915575 676
2.6705537 -4.235898 -0.87304169 943
2.5318313 -5.2095442 -1.0578426 829
2.5844486 -4.8586588 -1.0577699 833
2.9743414 -5.1290092 -1.1987339 752
2.7007363 -4.2837725 -1.075475 880
2.472693 -5.099174 -1.2532485 815
2.574579 -4.8462229 -1.2669244 731
2.3451014 -4.0455627 -1.1269534 826
2.6515763 -4.2057972 -1.2516177 800
2.3104291 -4.7751641 -1.3827702 906
2.3939164 -4.5156617 -1.3838321 786
2.3486035 -4.0548663 -1.3189187 886
2.4477174 -3.8809447 -1.3434693 740
3.353837 -6.9631205 2.3496413 748
3.7024002 -6.9931707 2.3168595 684
4.0683684 -7.0358052 2.2906249 872
4.4565282 -7.0855856 2.274229 843
3.3556471 -6.9575586 2.0308096 773
3.6964715 -6.98492 1.9923596 780
4.064281 -7.0372362 1.9660232 778
4.4204135 -7.0390649 1.9296638 719
3.348386 -6.942503 1.7228954 779
3.6880107 -6.9748201 1.681355 781
4.051168 -7.0201883 1.6475577 833
4.4118018 -7.0362539 1.6068065 812
3.3449817 -6.9323521 1.4251964 818
3.6962633 -6.990428 1.3857678 857
4.044868 -7.0177565 1.3394924 843
4.4156518 -7.0533304 1.2971617 822
3.3451378 -6.9326758 1.136672 862
3.6852746 -6.9725904 1.0859379 851
4.0305882 -6.9958029 1.0357151 753
4.3876019 -7.0194154 0.98268139 747
3.3358748 -6.9134784 0.84881788 760
3.667443 -6.9417853 0.79332459 765
4.0176892 -6.981864 0.73734486 762
4.374167 -7.0033598 0.6788606 686
3.3362799 -6.9174027 0.56936914 767
3.6536443 -6.9215155 0.50612694 622
4.003511 -6.9628458 0.4434211 711
4.3661475 -6.9932365 0.37869751 685
3.3145103 -6.8753328 0.28787762 754
3.6452675 -6.911489 0.22099103 697
3.9964995 -6.9562702 0.15123989 709
4.3621292 -6.9949508 0.077696726 745
3.3044803 -6.8606482 0.011961609 725
3.6454008 -6.9146662 -0.06275823 729
3.9929581 -6.9585381 -0.14003812 649
4.3595266 -6.9934955 -0.22155614 733
3.3001807 -6.8609076 -0.26586437 776
3.627342 -6.8920712 -0.34549415 707
3.2786016 -5.7136278 -0.35445851 640
2.6279154 -4.2173066 -0.31436855 532
2.5241466 -5.2499175 -0.41551173 717
2.6601107 -5.0585828 -0.46185571 609
3.3983448 -5.9294939 -0.61595696 428
2.6560237 -4.2657323 -0.50156474 737
2.5204685 -5.2516527 -0.62870169 807
2.5637984 -4.8795652 -0.64752263 799
3.8704128 -6.7586346 -0.98942882 522
2.65903 -4.272222 -0.68842119 784
2.5236073 -5.2676167 -0.84689349 794
2.5903666 -4.9343138 -0.86074191 780
3.9233038 -6.8593202 -1.2982612 694
2.6611609 -4.2789745 -0.87853795 816
2.5227447 -5.2729001 -1.0675442 747
2.8089526 -5.3597803 -1.1630939 597
2.9364898 -5.1361008 -1.1961577 757
2.4171376 -3.886601 -0.97202009 401
2.4430408 -5.117775 -1.2541121 792
2.5565426 -4.8843737 -1.2727731 778
2.3530357 -4.1172714 -1.1428853 796
2.3670914 -3.8061297 -1.1283356 719
2.2860789 -4.7997346 -1.385797 822
2.3782289 -4.5533657 -1.3908885 839
2.3890743 -4.1837201 -1.356037 852
2.3721466 -3.8127742 -1.3148072 894
3.3053105 -6.9714651 2.3455691 774
3.6438866 -6.9859738 2.3070242 799
4.0079603 -7.0305333 2.280859 789
4.3854952 -7.0685167 2.260071 861
3.2950573 -6.9404492 2.0198762 685
3.6387498 -6.9790959 1.9842925 780
4.0061159 -7.0358577 1.9587338 826
4.3632894 -7.0436974 1.923558 754
3.2923307 -6.9347062 1.7159147 627
3.6347518 -6.9773684 1.6765614 785
3.9900866 -7.0133982 1.6401874 800
4.3489203 -7.0314622 1.5995884 815
3.290992 -6.9287648 1.4202807 779
3.6314578 -6.9710445 1.3774821 773
3.9773607 -6.9995542 1.3313349 830
4.3421798 -7.0315318 1.2882285 786
3.288955 -6.9244761 1.1319975 816
3.620003 -6.9520168 1.0792539 819
3.9689713 -6.9876289 1.0308801 774
4.3220387 -7.0098581 0.97761232 700
3.2852893 -6.9167585 0.84672964 809
3.6082432 -6.9323864 0.78970534 764
3.9561014 -6.9734707 0.733881 769
4.3185663 -7.0097027 0.67689407 723
3.2736704 -6.895402 0.56589419 733
3.5926888 -6.9083896 0.50354564 618
3.9459405 -6.9612203 0.44176733 744
4.3079643 -6.9952278 0.37736681 692
3.2628365 -6.875679 0.28704843 743
3.5926514 -6.9142122 0.22036909 745
3.9399447 -6.9563022 0.15071213 719
4.2945032 -6.9815536 0.077253766 763
3.2490416 -6.8527842 0.011912915 750
3.5927646 -6.9173808 -0.062581606 747
3.9265559 -6.9411354 -0.1392004 705
4.2966366 -6.9877548 -0.22053491 780
3.2469013 -6.8575435 -0.26495701 754
3.5757878 -6.8964605 -0.3446078 704
3.2311904 -5.7119093 -0.35311526 648
2.6249831 -4.2707624 -0.31714666 569
2.61008 -5.515048 -0.43522006 637
2.8014164 -5.4075842 -0.49214134 734
3.9120891 -6.9240193 -0.71676141 772
2.6308413 -4.2836447 -0.5017634 636
2.5548723 -5.4081564 -0.64554858 671
2.7853644 -5.381197 -0.7118082 788
3.8805652 -6.873826 -1.0027876 493
2.6265457 -4.2783251 -0.6867947 642
2.6043611 -5.5228944 -0.88534951 738
2.8655756 -5.5408978 -0.96346921 580
2.5948594 -4.6020222 -0.86799324 596
2.6441278 -4.3103375 -0.88162959 659
2.6252961 -5.5748549 -1.1253951 846
2.8381824 -5.4973326 -1.1891419 262
2.6445553 -4.6920729 -1.0889474 737
2.3671587 -3.858835 -0.96142524 771
2.4228039 -5.1565294 -1.2599423 640
2.5345621 -4.9155569 -1.2768222 882
2.6159506 -4.6432157 -1.2843988 763
2.3614404 -3.8495133 -1.1368799 923
2.2705505 -4.8434606 -1.3943732 888
2.3639352 -4.59448 -1.3989903 853
2.3940516 -4.2528238 -1.3736479 832
2.3577425 -3.8419807 -1.3198651 956
3.2559991 -6.9777427 2.3409152 821
3.5956895 -6.9979572 2.303652 810
3.9472995 -7.0239477 2.2708218 735
4.3223958 -7.0631905 2.2498455 864
3.2466776 -6.9482698 2.0163164 624
3.5865555 -6.9831781 1.9791588 819
3.9371798 -7.0145373 1.9460361 818
4.3098302 -7.0537128 1.9190351 810
3.2381506 -6.9300208 1.7098068 701
3.5798147 -6.9760447 1.6709338 690
3.9292424 -7.0061245 1.6328171 806
4.2837081 -7.0219736 1.5914203 798
3.2346745 -6.9194326 1.4142725 725
3.5580361 -6.9336042 1.3657441 725
3.9189084 -6.9962826 1.3261139 769
4.2814779 -7.0293512 1.2829918 734
3.239702 -6.9301872 1.1296601 849
3.5551236 -6.9309063 1.07257 791
3.9100304 -6.9832911 1.0266812 782
4.2593384 -7.004004 0.97313273 693
3.2225826 -6.8935661 0.84145403 795
3.5588298 -6.9411149 0.78819728 770
3.890394 -6.9567628 0.72959679 760
4.2589126 -7.0088134 0.674272 691
3.2207451 -6.8927712 0.56404585 737
3.5388575 -6.9080997 0.50193232 641
3.8900032 -6.9617677 0.44027901 750
4.2530336 -7.0018926 0.37631145 728
3.2024033 -6.8566375 0.28542778 730
3.5364954 -6.9094315 0.21952096 730
3.8811038 -6.9515381 0.15009013 715
4.2329116 -6.9769955 0.076914474 744
3.1904411 -6.8372493 0.011851654 749
3.5320346 -6.9036865 -0.062260468 734
3.8668489 -6.9345341 -0.13858956 706
4.2308722 -6.9763789 -0.21935241 759
3.1840789 -6.8329492 -0.26324692 684
3.5256798 -6.9031463 -0.3438544 784
3.1844103 -5.7106967 -0.35182571 628
2.6111457 -4.3072715 -0.31866202 566
2.5884049 -5.5571814 -0.43728343 699
2.7197063 -5.3296733 -0.48352283 741
2.6042399 -4.6760144 -0.48238891 803
4.1748428 -6.892127 -0.80429137 551
2.5602026 -5.5066738 -0.65542066 653
2.657558 -5.2123775 -0.68730736 745
2.5990753 -4.6705756 -0.67902726 837
4.1844082 -6.9106402 -1.1052148 646
2.5637586 -5.5244074 -0.88305366 828
2.5753763 -5.0555511 -0.87631124 695
2.6073198 -4.6911707 -0.88177353 841
3.2617111 -5.3910322 -1.0985589 785
2.5401623 -5.4810762 -1.1032968 795
2.5844975 -5.0822258 -1.095898 785
2.8142147 -5.0655041 -1.1715845 698
2.3626785 -3.9050903 -0.96931946 848
2.424721 -5.2439713 -1.2776483 602
2.4972937 -4.9171162 -1.273223 944
2.5907149 -4.6651287 -1.2860389 727
2.3653855 -3.9095645 -1.1503067 931
2.2488956 -4.8748751 -1.3994179 911
2.3426809 -4.6226745 -1.4031719 886
2.3791208 -4.2876344 -1.3801504 831
2.3559895 -3.8925006 -1.3322293 990
3.196754 -6.9619408 2.3289895 772
3.5396826 -6.9941998 2.2952223 832
3.8864043 -7.0160413 2.2605135 783
4.2530456 -7.046617 2.2362115 840
3.1845894 -6.9258833 2.0041118 679
3.5248187 -6.9678473 1.9686469 697
3.8733623 -7.0011425 1.9356899 805
4.2528939 -7.0574985 1.9129294 874
3.1825213 -6.9213858 1.7028261 775
3.5201783 -6.9647098 1.6630138 729
3.8653193 -6.9923658 1.6240525 737
4.2223201 -7.0178399 1.584582 779
3.183116 -6.919497 1.4102671 671
3.5069835 -6.9386034 1.3624644 675
3.8482487 -6.9701018 1.316651 689
4.215879 -7.0182219 1.276215 686
3.1739657 -6.8996058 1.1214795 800
3.5027018 -6.9331374 1.069569 810
3.853689 -6.9828358 1.0231186 710
4.1994276 -7.001904 0.96924257 666
3.1648545 -6.8797998 0.8373875 776
3.495991 -6.9228559 0.78367323 785
3.8327327 -6.9534669 0.726771 773
4.2014823 -7.0108771 0.6719777 669
3.1600602 -6.8725371 0.56079274 726
3.4847159 -6.9065194 0.50025445 644
3.8313177 -6.9566431 0.43845987 768
4.1838102 -6.9841523 0.37397125 698
3.1523426 -6.8589063 0.28471166 732
3.485034 -6.9131489 0.21895555 781
3.8210239 -6.943687 0.14941159 703
4.173593 -6.9753785 0.07661289 746
3.1384137 -6.8348861 0.011813955 782
3.4738586 -6.8939734 -0.061979469 750
3.8092976 -6.9309669 -0.13804854 705
4.1592517 -6.9541645 -0.21784741 725
3.1379273 -6.8432736 -0.26289794 638
3.207613 -6.3766751 -0.31664386 338
3.1353624 -5.704751 -0.35026756 649
2.5979826 -4.3454833 -0.32030362 546
2.5089576 -5.4741216 -0.42952815 712
2.5799761 -5.1334076 -0.46427214 696
2.5922735 -4.7224636 -0.48553064 795
4.1370673 -6.9253016 -0.80518526 692
2.4965856 -5.4571834 -0.64769471 529
2.5591185 -5.0963397 -0.66992337 803
2.5966063 -4.7342739 -0.68595862 805
4.1332912 -6.9217238 -1.1029105 629
2.9371979 -6.4321656 -1.0252548 269
2.5571599 -5.0968752 -0.8807379 829
2.60219 -4.7503524 -0.88987958 821
2.8732061 -4.8153682 -0.97764182 452
3.093411 -6.7836547 -1.3616489 736
2.9780762 -5.9461894 -1.2782331 306
2.8381584 -5.1832638 -1.1947705 761
2.3456898 -3.9312739 -0.97222781 830
2.4224205 -5.3245182 -1.293627 561
2.476665 -4.9515181 -1.2781719 948
2.578378 -4.7107844 -1.2942392 697
2.3522837 -3.9423254 -1.1556774 928
2.2297404 -4.9123731 -1.4062283 869
2.3203073 -4.6490531 -1.4068307 895
2.3717041 -4.3367782 -1.3912588 808
2.3497696 -3.9365499 -1.3423454 999
3.1362507 -6.9421887 2.3159006 629
3.4787204 -6.979712 2.2834201 794
3.8252945 -7.0068088 2.249934 864
4.1973886 -7.0518498 2.2296569 781
3.1356547 -6.9311943 2.0000436 790
3.4634056 -6.9520235 1.958135 674
3.8210254 -7.0077109 1.9309872 771
4.1881113 -7.0474529 1.9032053 865
3.1303387 -6.9194436 1.6975908 801
3.4494853 -6.9301414 1.6496747 762
3.8045268 -6.9832511 1.616483 704
4.1626472 -7.0157518 1.5783136 744
3.1247864 -6.9039617 1.4031667 694
3.4546869 -6.9405913 1.3586669 692
3.7907903 -6.9667182 1.3115933 710
4.1530972 -7.0108042 1.2702082 704
3.12586 -6.9063334 1.1194344 856
3.4503865 -6.9349861 1.066568 816
3.7889705 -6.966269 1.0172657 665
4.1412201 -7.0018983 0.96570605 702
3.118073 -6.8891287 0.83617848 806
3.4397132 -6.9165602 0.78055662 759
3.7804878 -6.959352 0.72494793 797
4.126441 -6.9824705 0.66681564 665
3.1108437 -6.8763509 0.55953586 751
3.4329479 -6.9090042 0.49889931 645
3.7714131 -6.9484286 0.4364754 759
4.1180139 -6.9709888 0.3719064 697
3.102375 -6.8608198 0.28399554 746
3.4292154 -6.9075422 0.21810743 760
3.7626171 -6.9379983 0.1487896 663
4.1053066 -6.9577947 0.076141655 751
3.0894175 -6.838522 0.011787251 795
3.4177132 -6.8873906 -0.061730586 706
3.7471743 -6.9181638 -0.13733299 699
4.0931435 -6.9399471 -0.21661118 715
3.0909469 -6.8514667 -0.26247913 625
2.7054677 -5.4616432 -0.27037707 651
3.0574975 -5.6448588 -0.34543183 586
2.593065 -4.3983102 -0.32301858 553
3.0837994 -6.8388071 -0.53511369 811
2.663383 -5.3814068 -0.48521429 782
2.5817297 -4.7724447 -0.48903143 758
2.6268013 -4.4590898 -0.51656204 663
3.0335228 -6.7398639 -0.7977075 656
2.5555344 -5.1680336 -0.67727369 833
2.5910935 -4.7937522 -0.69225991 853
2.6277881 -4.4625459 -0.70848149 624
2.5387611 -5.6511431 -0.89826387 382
2.5398459 -5.1408229 -0.88562232 787
2.6011188 -4.8183289 -0.89960676 864
2.6397772 -4.4864869 -0.90756494 570
2.526263 -5.6312089 -1.1271915 709
2.9258978 -5.9326444 -1.271438 247
2.7378774 -5.0737796 -1.1656394 681
2.3428538 -3.9818449 -0.98116058 820
2.4112437 -5.3874068 -1.3052871 653
2.4496806 -4.9736142 -1.2799715 858
2.5632701 -4.7521853 -1.301268 878
2.3496878 -3.9934597 -1.1664188 920
2.218889 -4.9692569 -1.4185879 916
2.3011038 -4.682261 -1.4125803 943
2.3573799 -4.3741279 -1.3985741 786
2.3435836 -3.9814949 -1.3527423 935
3.0815504 -6.9341979 2.3068836 688
3.4227207 -6.9742174 2.274709 794
3.7708287 -7.0089574 2.2431521 892
4.1345015 -7.0441818 2.2191694 846
3.0832362 -6.9282146 1.993687 762
3.4181216 -6.9679208 1.9566684 773
3.7655334 -7.0079069 1.9246383 709
4.1255832 -7.0402417 1.8943859 844
3.0806806 -6.9224715 1.6936642 809
3.4004412 -6.9380031 1.6465483 776
3.7449193 -6.9753814 1.6093118 777
4.0957236 -7.0004859 1.569196 719
3.0691676 -6.893362 1.3971585 729
3.4016314 -6.9404311 1.3545241 771
3.7363162 -6.9681091 1.3075143 755
4.0880733 -6.9986148 1.2634312 752
3.0673294 -6.8892336 1.113591 816
3.4025393 -6.9453511 1.0649312 783
3.7358465 -6.9701538 1.0144664 666
4.069664 -6.978281 0.95898664 702
3.0648279 -6.883615 0.833211 787
3.3818948 -6.9062614 0.77703792 760
3.7226756 -6.9543228 0.722031 783
4.0659571 -6.97752 0.66394776 662
3.0657544 -6.8889313 0.55901831 761
3.3830347 -6.9146996 0.49780223 694
3.7145801 -6.9450254 0.43482167 711
4.0535426 -6.9590077 0.36993328 660
3.0455987 -6.8468571 0.2826387 721
3.3735976 -6.9015121 0.21725932 757
3.6959422 -6.9159822 0.14782833 631
4.0504689 -6.9621096 0.075915463 780
3.0392768 -6.8390727 0.011755835 801
3.3635359 -6.8839736 -0.061513819 693
3.6905308 -6.9145637 -0.13680942 755
4.034905 -6.9381433 -0.21577805 771
3.0289855 -6.8255424 -0.26076904 616
2.6653357 -5.4646721 -0.26971233 730
2.8822191 -5.4001141 -0.32936648 585
2.5815773 -4.4408851 -0.32497591 535
2.4986188 -5.6330614 -0.4395602 723
2.6276932 -5.3922715 -0.48473102 705
2.5711379 -4.8233519 -0.49262199 734
3.3555686 -5.7769623 -0.6668328 354
2.497853 -5.6419587 -0.66593659 824
2.5402966 -5.2175493 -0.68170714 775
2.58728 -4.8577175 -0.69919133 872
3.3167362 -5.7124028 -0.90366292 617
2.4956386 -5.6476049 -0.8952505 839
2.5462978 -5.2345171 -0.89905477 827
2.5974565 -4.8829846 -0.90868556 868
3.2731581 -5.6418834 -1.1372043 652
2.4900746 -5.6430039 -1.1264729 798
2.5479925 -5.2473106 -1.1211908 766
2.6091385 -4.907011 -1.1236272 653
2.3335946 -4.0223746 -0.98760062 775
2.4572167 -5.5817242 -1.3486888 703
2.4310215 -5.0131001 -1.2862703 801
2.5495758 -4.7970114 -1.309234 891
2.3382795 -4.0304499 -1.1730101 826
2.196528 -5.0013843 -1.423885 811
2.2803185 -4.7128005 -1.4175459 915
2.3426862 -4.4114647 -1.4058894 778
2.3436782 -4.0381317 -1.3670734 897
3.0263002 -6.9240451 2.2972848 782
3.3723478 -6.9795337 2.2696512 710
3.707916 -6.9945455 2.2312162 865
4.0762167 -7.0435257 2.2110415 892
3.0239925 -6.908905 1.9827536 724
3.3643384 -6.9660602 1.9503123 814
3.6915371 -6.9724684 1.9086486 687
4.0603781 -7.0274692 1.8842095 773
3.0275817 -6.9171052 1.6877744 814
3.3514307 -6.9455242 1.6434219 807
3.6846359 -6.9653115 1.6017424 782
4.0409184 -7.0050745 1.5646371 750
3.0181355 -6.8922486 1.3931532 787
3.3448558 -6.9318981 1.3488277 810
3.6810467 -6.967351 1.3031093 824
4.0238495 -6.9867501 1.2568084 776
3.00754 -6.868052 1.1071633 804
3.3340375 -6.9125605 1.0567467 673
3.6763332 -6.9613705 1.0098859 673
4.0163751 -6.9850426 0.95651114 792
3.0117683 -6.877708 0.83024347 841
3.333406 -6.9143353 0.77563035 793
3.6613512 -6.9418011 0.7183848 756
4.0106549 -6.9807324 0.66189927 685
3.0062323 -6.8683286 0.55583912 747
3.3210561 -6.8948693 0.49489829 689
3.6518795 -6.9297037 0.43245131 726
3.9978321 -6.961226 0.36874023 693
2.9955194 -6.8471055 0.28188491 736
3.3125482 -6.8833508 0.21604368 748
3.6324749 -6.8987198 0.14698014 653
3.9842896 -6.9460645 0.075472511 745
2.9908481 -6.8429322 0.011730703 806
3.3073626 -6.8756461 -0.061256912 646
3.6280236 -6.8990259 -0.13605897 758
3.9733624 -6.9298162 -0.2147568 751
2.9778531 -6.8229332 -0.25996637 645
2.6378088 -5.4935317 -0.27033275 720
2.833693 -5.3885322 -0.32759336 551
2.5815744 -4.5042648 -0.32844853 517
2.4652042 -5.6510291 -0.43977365 669
2.551013 -5.3175259 -0.47659579 679
2.5692799 -4.891942 -0.49800777 753
3.827908 -6.6842422 -0.76883417 455
2.4675536 -5.6672063 -0.667117 598
2.5176785 -5.2527413 -0.6842739 753
2.5763245 -4.9095168 -0.7043584 774
3.9313519 -6.8676538 -1.0825793 705
2.4684329 -5.6800566 -0.89797688 445
2.5341933 -5.2919359 -0.9062289 777
2.6219556 -5.0028377 -0.92797792 611
3.9281409 -6.8676033 -1.3793818 763
2.5783687 -5.9415359 -1.1828864 506
2.689817 -5.6269922 -1.1987683 776
2.8268719 -5.3961196 -1.2316302 550
2.326354 -4.0671854 -0.99507934 788
2.4147754 -5.5778794 -1.3441544 860
2.4132285 -5.0551805 -1.2932436 832
2.5304666 -4.8323731 -1.3146226 887
2.3616529 -4.1288986 -1.1974224 758
2.1765413 -5.0396419 -1.4309477 873
2.2563393 -4.7371612 -1.4206821 903
2.33744 -4.4675488 -1.4191654 885
2.3574646 -4.1199074 -1.3898345 943
2.9799802 -6.9336934 2.2943764 785
3.3096724 -6.9584942 2.2561629 738
3.6555712 -6.999249 2.2255194 861
4.0027933 -7.0155988 2.1945236 857
2.9750433 -6.9122276 1.9784311 779
3.3002992 -6.9419103 1.9378448 813
3.6343007 -6.9674106 1.901124 774
3.9954855 -7.0141625 1.8740331 759
2.97698 -6.9167271 1.6831933 825
3.2978404 -6.9429879 1.6380029 828
3.6350343 -6.9747534 1.5987543 835
3.9794164 -6.9973063 1.5574189 821
2.9722886 -6.9025097 1.3915145 808
3.2908487 -6.9282684 1.344167 825
3.6186392 -6.9521747 1.2960936 853
3.9691954 -6.9906869 1.2531118 796
2.9598641 -6.8736563 1.1051182 777
3.2839124 -6.9167795 1.0542914 675
3.6097443 -6.9380417 1.0032694 690
3.9455268 -6.9603138 0.94979173 796
2.9565382 -6.8659329 0.82661653 858
3.2815335 -6.9148836 0.77341861 771
3.5994031 -6.927022 0.71455634 750
3.9353285 -6.9479747 0.65649134 676
2.9514165 -6.8573327 0.55347323 745
3.2654343 -6.8871651 0.49289781 670
3.5913479 -6.9174199 0.43030146 748
3.935849 -6.9517231 0.36695069 701
2.9463418 -6.8488336 0.28120646 731
3.253989 -6.8692188 0.21496941 712
3.5845523 -6.9102278 0.14675395 622
3.9278126 -6.9460092 0.075208619 778
2.9266922 -6.8097053 0.011642738 796
3.2432876 -6.8497176 -0.060847461 611
3.5699861 -6.8909726 -0.13546559 774
3.916502 -6.9288292 -0.21397744 780
2.9233198 -6.8116879 -0.25884959 709
3.1812117 -6.7307601 -0.33024913 538
2.7114651 -5.2338104 -0.31716973 299
2.5867815 -4.5782366 -0.33267882 576
2.903919 -6.7697415 -0.52543736 642
2.601757 -5.5097361 -0.492383 600
2.8023818 -5.4162445 -0.54962176 880
3.8846605 -6.8809052 -0.7886982 592
2.9093413 -6.7954731 -0.79781479 818
2.5900717 -5.4899526 -0.71309161 671
2.8718805 -5.5553169 -0.79446685 628
2.5973039 -4.6024847 -0.72298449 465
2.9025087 -6.7926164 -1.0710289 754
2.6150236 -5.5478587 -0.94728929 765
2.8496966 -5.5194869 -1.0205487 417
2.6133604 -4.634716 -0.92766047 781
2.6144443 -6.1273489 -1.2166626 602
2.6213753 -5.5714159 -1.1834793 822
2.7748294 -5.376781 -1.223307 208
2.6295016 -4.663342 -1.1369663 808
2.384711 -5.6024733 -1.3465295 843
2.3896236 -5.0857668 -1.2972928 827
2.5052249 -4.8564487 -1.3169657 899
2.5706158 -4.5589099 -1.3175309 768
2.1520071 -5.0680432 -1.4352356 772
2.2415702 -4.7815056 -1.4298291 870
2.3165987 -4.4946413 -1.4232293 801
2.354774 -4.174418 -1.4033227 952
2.9247189 -6.9218831 2.2844868 783
3.2604034 -6.9647641 2.251667 859
3.5883369 -6.9744744 2.2105994 766
3.9426401 -7.0097475 2.1850848 833
2.9220219 -6.9054132 1.9713117 772
3.2424366 -6.929534 1.9287996 798
3.5861504 -6.9792051 1.8983023 808
3.9309101 -7.0003257 1.8638568 791
2.9253561 -6.9132929 1.6779579 840
3.2415085 -6.9338541 1.6311249 804
3.5787427 -6.9707732 1.5927784 851
3.9215233 -6.9950438 1.5515304 841
2.9172294 -6.8907361 1.3855064 807
3.2345102 -6.9188843 1.3384707 818
3.5723124 -6.9672241 1.2947884 885
3.9074061 -6.9812837 1.247105 791
2.909533 -6.8725572 1.1020504 716
3.2363772 -6.9260287 1.0526545 713
3.5526288 -6.9318137 0.9991979 713
3.8882132 -6.9583859 0.94625521 805
2.9000165 -6.8500786 0.82254994 815
3.2238855 -6.9024363 0.76979935 799
3.5409513 -6.9179506 0.71136594 732
3.8795047 -6.9484959 0.65427905 693
2.9011235 -6.8560262 0.55192059 767
3.2096105 -6.8781338 0.49083278 728
3.5324693 -6.9073229 0.42831698 755
3.8780286 -6.9487014 0.36552823 705
2.890249 -6.8336501 0.27984962 760
3.202909 -6.8700299 0.21437572 713
3.5298014 -6.9080534 0.14624505 643
3.8739209 -6.9498897 0.074991852 774
2.8720095 -6.7971368 0.011590902 759
3.1935945 -6.8531742 -0.06070295 621
3.5158203 -6.8895926 -0.13501182 755
3.8602905 -6.9282794 -0.21322495 776
2.8709798 -6.8046355 -0.2579073 737
3.1765096 -6.8289595 -0.33410472 776
2.6897392 -5.2708063 -0.31840551 314
2.5717528 -4.6175637 -0.33438361 523
2.8607757 -6.7837558 -0.5251528 739
2.5716815 -5.5337315 -0.49310789 767
2.6754811 -5.2496529 -0.53104073 743
2.5949647 -4.6630692 -0.53265184 767
2.8645048 -6.8058658 -0.79695636 813
2.5613561 -5.516551 -0.71449161 782
2.5604479 -5.0282803 -0.71683496 618
2.6012838 -4.6763449 -0.73206586 815
2.8554096 -6.7975245 -1.06902 824
2.5539012 -5.5055256 -0.93736762 784
2.5648386 -5.0434318 -0.92959905 794
2.596838 -4.6721911 -0.93195438 851
2.5657637 -6.1169677 -1.2114525 574
2.5277228 -5.4590726 -1.1562989 764
2.5765591 -5.0686679 -1.1495875 747
2.7952003 -5.0290818 -1.2219324 753
2.3585818 -5.636817 -1.35128 823
2.3673699 -5.1197906 -1.3022418 797
2.4736176 -4.8682623 -1.3160285 848
2.5628521 -4.6110444 -1.3280281 897
2.1473341 -5.1445556 -1.4531446 777
2.2194676 -4.810946 -1.4345335 902
2.3094563 -4.5491123 -1.4359634 870
2.3398426 -4.2080793 -1.4097857 901
2.8719165 -6.9149575 2.2763424 778
3.2071669 -6.9619756 2.2443609 845
3.5298119 -6.9654527 2.2008336 824
3.8869212 -7.0110192 2.1780055 847
2.8721676 -6.9053531 1.9662265 781
3.1893125 -6.9263988 1.9224436 832
3.5235093 -6.9620538 1.8877211 799
3.874203 -6.9995975 1.8572986 862
2.8686397 -6.8968711 1.6696684 821
3.1850045 -6.9234033 1.6240385 809
3.5208685 -6.9628673 1.5860058 861
3.8538368 -6.9742889 1.5416528 801
2.862427 -6.8785481 1.3794982 811
3.180881 -6.9144402 1.33381 850
3.5099261 -6.9502625 1.2876096 845
3.8530414 -6.9843636 1.2434084 812
2.8574271 -6.8665333 1.0982522 707
3.1801615 -6.9160547 1.048153 704
3.4961734 -6.926033 0.99525356 772
3.8315511 -6.9568872 0.94283652 789
2.8502934 -6.8493905 0.82035178 789
3.1640213 -6.8841186 0.76557684 774
3.4872298 -6.9173164 0.70908707 688
3.8295889 -6.9590716 0.65304995 724
2.8444479 -6.8387084 0.54911107 708
3.1544373 -6.869585 0.48883227 687
3.4841812 -6.917275 0.42760038 767
3.8069129 -6.9207249 0.36282095 688
2.8390577 -6.8291106 0.27894506 713
3.1527753 -6.8722906 0.21383858 740
3.4725156 -6.9001093 0.14562306 626
3.8042409 -6.9244504 0.074464075 751
2.8210437 -6.7924671 0.011553203 765
3.1393969 -6.8462811 -0.060470127 618
3.4591122 -6.8824477 -0.13445334 749
3.7936473 -6.9080248 -0.21188121 740
2.8169224 -6.7925825 -0.25679052 759
3.1316376 -6.8419633 -0.3337945 779
2.6604865 -5.2934566 -0.31878161 316
2.5731466 -4.6874981 -0.3382982 566
2.8126044 -6.7855167 -0.52394325 638
2.5273159 -5.5267453 -0.49109423 509
2.564584 -5.1093087 -0.51524234 784
2.5873585 -4.7172909 -0.53702188 783
2.8124294 -6.7985086 -0.79405916 816
3.0074449 -6.5827684 -0.85017967 421
2.551338 -5.0873475 -0.72301024 776
2.5954041 -4.7339196 -0.73857194 829
2.7966518 -6.7737527 -1.0625629 799
3.0847387 -6.7581911 -1.1474015 651
2.5616841 -5.1146593 -0.93981272 809
2.5903661 -4.7286448 -0.94002694 825
2.5233083 -6.1207728 -1.2091169 620
2.7262523 -5.9838576 -1.2638879 543
2.7911313 -5.5752034 -1.2605631 396
2.7656996 -5.0487118 -1.2225556 716
2.3328629 -5.6728554 -1.3564622 845
2.3468056 -5.1581659 -1.3083154 733
2.4436998 -4.8833485 -1.3160285 860
2.5279884 -4.6147761 -1.3246104 870
2.1344571 -5.2032928 -1.4660088 826
2.1974866 -4.8411736 -1.439499 911
2.29054 -4.5812778 -1.441653 878
2.3181293 -4.2299314 -1.4123147 790
2.8200328 -6.9094181 2.2687798 787
3.1441827 -6.9369435 2.2300298 830
3.4784102 -6.9697561 2.1954081 883
3.831336 -7.0118723 2.1709266 789
2.82462 -6.9103131 1.9626667 711
3.13955 -6.9299388 1.9180434 820
3.4664164 -6.9548354 1.8799613 837
3.8153214 -6.9941635 1.84961 855
2.8107588 -6.8764019 1.6605065 798
3.1327844 -6.9214315 1.6190363 798
3.4654107 -6.9589009 1.5802292 862
3.7959449 -6.9702134 1.5355744 834
2.8119788 -6.8759599 1.3754929 881
3.1266165 -6.9078045 1.3288041 832
3.4500802 -6.9372158 1.2812465 854
3.7794366 -6.9514503 1.2333972 821
2.8036327 -6.8555517 1.0937237 679
3.1201069 -6.8966265 1.0422876 710
3.4514024 -6.942914 0.99461734 793
3.781213 -6.9663024 0.94095039 818
2.8029454 -6.8538709 0.81881303 825
3.1102431 -6.8780198 0.76276183 765
3.4367495 -6.9225283 0.70744628 698
3.7682865 -6.9482713 0.6498543 737
2.7937541 -6.8348007 0.54741061 662
3.0974362 -6.8560724 0.48650911 677
3.4341292 -6.923317 0.42666325 736
3.7515223 -6.9202418 0.36158204 688
2.7819843 -6.8093996 0.27743745 684
3.0982118 -6.8641739 0.21299046 733
3.4181249 -6.8970985 0.14511414 623
3.7469225 -6.920403 0.074171908 772
2.7744005 -6.7976127 0.011532783 764
3.0882826 -6.8453617 -0.060293499 613
3.4097209 -6.889205 -0.13417411 756
3.7354879 -6.9021602 -0.21099433 717
2.7653847 -6.785676 -0.25588313 714
3.0764709 -6.8319001 -0.33237636 782
2.6350436 -5.3240004 -0.31964129 334
2.5718784 -4.7541103 -0.34196025 551
2.7554891 -6.7647724 -0.52102613 490
3.0556602 -6.7920179 -0.60184616 701
2.5495145 -5.1579843 -0.51856363 779
2.5810769 -4.7750955 -0.54178929 728
2.7627988 -6.7962952 -0.79180568 736
2.9279096 -6.5141344 -0.8389793 466
2.5490661 -5.1616116 -0.73132795 796
2.5898569 -4.7933388 -0.74534905 771
2.7487113 -6.7751956 -1.0601236 826
2.5521374 -5.6834054 -0.96224809 582
2.5490215 -5.1683354 -0.94678384 793
2.597806 -4.812067 -0.95342404 875
2.4868124 -6.1388755 -1.2096559 716
2.5304291 -5.6456065 -1.1891419 835
2.7378004 -5.5535421 -1.2518437 184
2.6812308 -4.9665995 -1.1986655 750
2.3045957 -5.7033582 -1.3603489 848
2.3385968 -5.2249403 -1.3215876 688
2.4188468 -4.9087152 -1.31884 829
2.5162096 -4.6609211 -1.3333988 806
2.1278126 -5.2791171 -1.4836655 753
2.1901734 -4.9048038 -1.4543958 918
2.2764177 -4.623745 -1.4505939 896
2.3030767 -4.2643418 -1.4190588 752
2.7669015 -6.899951 2.2600536 766
3.0874898 -6.9245505 2.2199137 821
3.4262397 -6.9719634 2.18944 870
3.7726841 -7.0063601 2.1620121 815
2.7673883 -6.8907185 1.9522419 637
3.0859175 -6.9242735 1.9111985 769
3.4163971 -6.9611406 1.8759638 825
3.7571139 -6.9891286 1.8421472 848
2.7579656 -6.8672562 1.6541803 765
3.0830956 -6.9244409 1.6152847 815
3.4109974 -6.9562764 1.5748507 857
3.7377844 -6.9648261 1.5293061 834
2.7605705 -6.8702745 1.3709413 833
3.0781624 -6.9133615 1.3262149 828
3.3979034 -6.9387617 1.2776573 857
3.7255132 -6.9536066 1.2297007 817
2.7511876 -6.8469229 1.0896333 710
3.0616195 -6.8794384 1.0368313 780
3.3943462 -6.9345617 0.99041849 797
3.7210681 -6.9569736 0.9365887 801
2.7560205 -6.8589511 0.81738424 759
3.0526156 -6.8624306 0.75894147 730
3.3837128 -6.9220138 0.70525861 736
3.7030339 -6.9290709 0.64592129 757
2.7409859 -6.8249769 0.54526651 647
3.0528781 -6.8694773 0.48612192 715
3.3749325 -6.9101648 0.4245685 794
3.6991053 -6.9246268 0.36061841 683
2.7293549 -6.7994475 0.27634442 653
3.0454891 -6.8593011 0.21225543 742
3.3634636 -6.8927827 0.14458638 614
3.6879148 -6.912385 0.073842049 757
2.7304056 -6.8089395 0.011523358 793
3.0316198 -6.8312783 -0.060004476 647
3.3608153 -6.8965154 -0.13391232 791
3.668606 -6.8790846 -0.20959684 701
2.7162669 -6.7839608 -0.25518513 759
3.0308518 -6.8424273 -0.33197749 791
2.5992644 -5.3337851 -0.31926519 260
2.5609686 -4.8041482 -0.3444227 546
2.7102232 -6.7722917 -0.52031463 638
2.4919763 -5.6311741 -0.49761856 750
2.5300212 -5.1986055 -0.52107698 738
2.582602 -4.8488073 -0.54834437 740
2.7092452 -6.7835736 -0.78837192 842
2.4947209 -5.6426978 -0.72475868 791
2.5381694 -5.2199783 -0.73737717 814
2.5832119 -4.8519926 -0.75199068 787
2.7030571 -6.7818213 -1.0585451 863
2.5024421 -5.6655087 -0.95660037 780
2.5526063 -5.2566662 -0.96007776 820
2.5904388 -4.8696637 -0.96166843 863
2.4545541 -6.1677284 -1.2123507 687
2.4953446 -5.6601281 -1.188953 769
2.5513051 -5.256321 -1.1812949 730
2.633708 -4.951004 -1.190979 670
2.2727995 -5.7255592 -1.3622924 865
2.3115969 -5.2507844 -1.3245119 630
2.3967447 -4.940083 -1.3232915 826
2.4939394 -4.6882586 -1.3368165 787
2.1206732 -5.3559527 -1.5015743 734
2.1701286 -4.9411278 -1.4611908 862
2.2601805 -4.6627455 -1.4584512 922
2.3003128 -4.3224478 -1.4336709 808
2.7167978 -6.8972139 2.2536545 593
3.0360782 -6.9231496 2.2134507 843
3.3720779 -6.9694624 2.1821158 885
3.7137926 -6.9995408 2.1528354 912
2.7112138 -6.8724828 1.9423256 621
3.0316947 -6.9164352 1.9038647 681
3.3676999 -6.9697199 1.8726718 805
3.7023039 -6.9896693 1.8362676 875
2.7096887 -6.8686166 1.6504718 595
3.02878 -6.9163508 1.6090319 711
3.3541908 -6.9479523 1.5682772 830
3.6825869 -6.9641953 1.5241772 810
2.7125874 -6.8724504 1.3680283 815
3.0234363 -6.9041481 1.3208638 819
3.3411248 -6.9301524 1.2722732 850
3.6680157 -6.9483738 1.224772 835
2.6985908 -6.8369894 1.085397 759
3.0110087 -6.8790369 1.0339667 799
3.3375232 -6.9257717 0.98621964 805
3.662107 -6.9489274 0.93246275 808
2.7018406 -6.8452229 0.8137573 823
3.0016778 -6.8609786 0.75672972 733
3.330812 -6.9211097 0.70307094 662
3.6423385 -6.9172692 0.64272571 722
2.6895418 -6.8175473 0.5433442 678
2.9998796 -6.8633914 0.48437953 742
3.319489 -6.9037471 0.4229148 795
3.637471 -6.9109507 0.35873708 671
2.6828177 -6.8039813 0.27585447 695
2.9929433 -6.8540411 0.21152039 712
3.3046553 -6.8790441 0.14387015 611
3.6314735 -6.9083295 0.073559307 783
2.6772141 -6.7967215 0.011474663 792
2.9788468 -6.8250065 -0.059787709 698
3.2920544 -6.8620172 -0.13284773 724
3.6095889 -6.8696084 -0.20862935 657
2.6709323 -6.7911997 -0.25483614 769
2.9796338 -6.8398304 -0.33095822 776
2.5906756 -5.4000506 -0.32227409 345
2.5495412 -4.8542304 -0.34688511 533
2.665334 -6.7804394 -0.5196743 709
2.4510128 -5.6317348 -0.49632978 565
2.5174403 -5.2544508 -0.52511632 766
2.5842435 -4.9244771 -0.55509812 711
2.6512325 -6.75842 -0.78354323 790
2.4640112 -5.667007 -0.72592533 464
2.5180852 -5.2605085 -0.74090588 733
2.5823867 -4.923027 -0.76052982 700
2.6491277 -6.7669463 -1.0536664 834
2.68892 -6.1901851 -1.0423846 320
2.5283902 -5.289145 -0.96315807 737
2.7685888 -5.2824817 -1.0398179 579
2.3991151 -6.1377788 -1.2035475 706
2.5773656 -5.9447289 -1.2453902 637
2.6973338 -5.6450911 -1.2649229 788
