# .PCD v0.7 - Point Cloud Data file format
VERSION 0.7
FIELDS x y z intensity
SIZE 4 4 4 4
TYPE F F F F
COUNT 1 1 1 1
WIDTH 1372
HEIGHT 1
VIEWPOINT 0 0 0 1 0 0 0
POINTS 1372
DATA ascii
-8.6351318 1.8824079 0.69230074 107
-5.4551902 1.8289608 0.40697479 297
-5.7060204 1.6859493 0.36391038 262
-8.0070362 2.0525434 0.42799118 140
-9.0881758 1.9864864 0.39201498 301
-3.66676 1.2305645 0.13222589 23
-4.3970456 1.3014417 0.11319089 67
-4.9079318 1.261307 0.077039853 49
-6.1988602 1.3581166 0.036993161 59
-5.5517607 1.866082 -0.012062416 142
-5.3122444 1.5743401 -0.064793356 57
-4.8495932 1.2445097 -0.11274434 28
-6.1380892 1.3465986 -0.19210532 54
-4.9375935 1.6630031 -0.20097245 115
-5.9665089 1.771184 -0.2984086 65
-4.9833374 1.2856939 -0.29557487 35
-6.0956473 1.3389603 -0.41868252 47
-5.489058 1.8508723 -0.43474266 170
-4.1527014 1.2353505 -0.36617544 49
-5.0465484 1.3030356 -0.48956421 26
-6.2335229 1.3717551 -0.66285038 29
-5.5420451 1.8716483 -0.65396219 210
-4.1689448 1.2422421 -0.52788228 34
-5.1142182 1.323841 -0.69267762 32
-6.168839 1.358085 -0.89032096 166
-5.5863881 1.8916216 -0.87829953 107
-4.4680533 1.3334918 -0.73901546 39
-5.2166896 1.3525038 -0.90725291 203
-5.0999393 1.1245375 -0.9322347 325
-4.6077313 1.5636431 -0.90903062 91
-4.4175515 1.321023 -0.9059484 114
-4.3672414 1.1330038 -0.93164265 296
-0 0 -0 0
-0 0 -0 21
-3.9125347 1.1727561 -0.96079814 380
-3.8416519 0.99743623 -0.97488636 280
-0.73974937 0.16299301 -0.19423755 182
-3.5134974 1.1994975 -0.98479629 277
-3.4588301 1.0385377 -0.99521452 332
-3.3498218 0.87111181 -0.98987836 350
-0.76386559 0.16811097 -0.23260303 148
-18.93297 6.595705 6.0226045 119
-19.018564 5.8355713 5.7499237 89
-19.034838 5.0711379 5.4807281 89
-19.028522 4.3171935 5.2304468 125
-18.888039 6.5752473 5.1890612 89
-18.926607 5.8120546 4.9239426 90
-18.988615 5.0676985 4.6896706 128
-19.102488 4.3578196 4.4759388 116
-5.4638524 1.9023806 1.2732029 218
-5.6047125 1.7227223 1.2294344 208
-19.078812 5.1085391 3.9448278 134
-19.124691 4.3783383 3.7252276 126
-5.3870802 1.8764938 1.0367949 252
-5.4713135 1.6831828 0.98208332 76
-18.998262 5.0930123 3.1832299 108
-8.6339531 1.983923 1.3484908 87
-5.1192923 1.7827137 0.78250331 289
-5.0265546 1.548375 0.70748478 466
-5.3261323 1.4316047 0.68861341 282
-5.8279052 1.3417152 0.68972981 163
-5.3931079 1.8795433 0.61257386 315
-5.6195784 1.7341642 0.57384604 252
-9.034234 2.4320209 0.82313901 112
-8.588068 1.9828498 0.69042647 192
-5.4662404 1.9075989 0.40951487 264
-5.6849017 1.755844 0.36391038 150
-5.828999 1.5706975 0.31257781 210
-7.7548947 1.7950459 0.3354294 103
-3.3796523 1.18055 0.12238583 12
-3.9681687 1.2276609 0.10253066 50
-4.706749 1.2713774 0.074121214 47
-5.7959785 1.344595 0.034684733 162
-5.4718089 1.9142572 -0.011938848 96
-3.9514842 1.2240106 -0.048375759 53
-4.7181258 1.2726836 -0.11004279 35
-5.7472353 1.3349785 -0.18037184 64
-5.4712992 1.9178309 -0.22363678 93
-3.9409409 1.2227049 -0.19783756 40
-4.7706175 1.293455 -0.28387803 44
-5.6705918 1.3187404 -0.39056957 65
-5.4659314 1.9180921 -0.43474266 187
-3.8175168 1.1868225 -0.33787856 46
-4.60355 1.249107 -0.44804245 31
-5.7163653 1.3316993 -0.6095497 44
-5.5074086 1.9355626 -0.65262896 190
-3.8349159 1.1941404 -0.4874056 44
-4.7531562 1.2928183 -0.6458751 31
-5.7466741 1.3392887 -0.83170128 37
-5.4172249 1.9087555 -0.855322 146
-3.8516786 1.2012039 -0.63945729 48
-0 0 -0 22
-5.0742517 1.1843518 -0.93012595 247
-4.6215644 1.6318516 -0.91564173 163
-3.7941012 1.1855004 -0.78101659 57
-4.4097009 1.201964 -0.94377607 316
-4.2304058 0.98716104 -0.94191676 179
-3.7454121 1.3263843 -0.89550304 83
-3.7863753 1.1857708 -0.93332064 85
-3.8740938 1.0567713 -0.98633587 306
-0 0 -0 29
-3.4329333 1.219232 -0.96633625 245
-3.4016714 1.0670544 -0.98246217 308
-3.3611388 0.91823471 -0.99647754 375
-0.7617451 0.17747211 -0.23260303 67
-18.904633 6.8471136 6.039866 115
-18.94552 6.0685191 5.7499237 84
-18.982307 5.307456 5.4839449 92
-19.007925 4.5584874 5.2397685 92
-18.882383 6.834209 5.2101569 90
-18.99802 6.0900888 4.9615927 115
-18.981195 5.3160758 4.7035966 139
-19.070318 4.5973921 4.4812837 111
-5.3739772 1.9453526 1.2577285 285
-5.5719666 1.7877829 1.2269717 222
-19.037344 5.3486466 3.9495285 122
-19.069521 4.6126981 3.7252276 137
-5.4302535 1.9665819 1.0496699 292
-5.6191592 1.8044392 1.0125198 212
-5.2617011 1.4799885 0.88459438 198
-8.5743713 2.0813301 1.3430734 209
-5.0858626 1.8413577 0.78078884 292
-5.1996498 1.6718278 0.73468029 226
-5.2967029 1.4936252 0.68712676 292
-5.7762508 1.4046808 0.68560517 156
-5.3472009 1.9374543 0.61001438 306
-5.4841928 1.7663794 0.56219244 208
-8.7391195 2.4679801 0.79894966 74
-8.3073874 2.0257373 0.6698097 227
-5.1836143 1.8806386 0.39004105 190
-3.8503339 1.2411754 0.24742973 77
-5.7400928 1.6225514 0.30885482 272
-8.0350904 1.9640934 0.34856534 279
-0 0 0 24
-3.7473159 1.2099167 0.097200543 54
-7.8769917 2.2317855 0.1244677 39
-5.3244886 1.304273 0.031956591 72
-5.3915191 1.9607542 -0.011815278 154
-3.8105743 1.2318102 -0.046832226 62
-5.5448465 1.568929 -0.12976405 53
-5.2877517 1.2968394 -0.16643831 52
-5.4135532 1.9725125 -0.22224917 179
-3.8116052 1.2340542 -0.19209066 62
-4.7774324 1.3584538 -0.28525412 42
-5.2935219 1.2997239 -0.36566949 34
-5.4869494 2.0014253 -0.43833494 237
-3.7685437 1.2225109 -0.33484674 55
-4.3350682 1.233568 -0.42335385 18
-5.3055182 1.3048295 -0.56740487 34
-5.528049 2.0193691 -0.65796202 204
-3.706677 1.2043009 -0.47294971 51
-4.4051194 1.2564107 -0.60063267 38
-5.3144217 1.3075111 -0.77140683 31
-5.4379754 1.9914155 -0.86239207 250
-3.8253779 1.2447125 -0.6375789 45
-5.01125 1.4313699 -0.87737089 55
-5.0822763 1.2521837 -0.93434346 285
-4.5790434 1.6803153 -0.91123438 144
-3.689707 1.2027755 -0.76250815 38
-4.3494205 1.2430695 -0.9340694 271
-4.2749085 1.053025 -0.95463103 388
-3.7508252 1.3803322 -0.90077966 60
-3.838161 1.2539113 -0.94980717 138
-3.8048122 1.0882101 -0.9720239 320
-3.8055501 0.93698668 -1.004968 230
-3.4177129 1.2612675 -0.96633625 183
-3.3773258 1.1051199 -0.97927403 238
-3.3828919 0.96894246 -1.0063763 481
-3.3061018 0.81315786 -1.0125073 35
-18.926752 7.1190472 6.074389 100
-18.978971 6.3370638 5.7832441 93
-18.993412 5.5627446 5.5064607 85
-19.006741 4.8056064 5.2553034 102
-18.894949 7.1021914 5.2372799 107
-18.921856 6.3227654 4.9615927 104
-19.015333 5.5781746 4.7286639 127
-19.023802 4.8339486 4.4839563 118
-18.930552 7.1167045 4.4506221 70
-5.5718851 1.8634751 1.231897 239
-19.01543 5.5951481 3.95893 98
-19.034328 4.8521876 3.7297046 132
-5.5714746 2.0954142 1.0818573 199
-5.6302395 1.8845211 1.0186071 166
-5.1976905 1.5310575 0.87692589 173
-19.076101 4.8791499 2.9971983 74
-5.0740004 1.9078104 0.78250331 278
-5.1900191 1.7392887 0.73628008 297
-5.2322946 1.5450225 0.6811797 168
-5.5738115 1.4281178 0.66360718 236
-5.2783542 1.986119 0.60489535 219
-5.4054914 1.8145419 0.55636555 196
-5.9226294 1.7513415 0.54338396 158
-5.7790818 1.4845821 0.46739081 122
-5.6418085 2.1255765 0.42644861 253
-5.5719748 1.8719429 0.35951486 286
-5.8001881 1.7166764 0.31319833 137
-8.0336046 2.0685277 0.34957579 224
-5.3807802 2.0290565 0.19659632 31
-3.5957468 1.2099016 0.09364713 27
-5.7439265 1.7038414 0.091085784 51
-5.0408382 1.3005642 0.030347684 53
-5.2323375 1.9758964 -0.011518712 103
-5.5577226 1.8722297 -0.068582028 103
-6.1578293 1.8242806 -0.14462252 30
-5.0043354 1.2926368 -0.15800488 37
-5.3104329 2.0090952 -0.2190114 142
-4.8183303 1.6255858 -0.24381289 175
-5.4723101 1.6288838 -0.32791322 77
-4.9757862 1.2866521 -0.34478554 26
-5.4395943 2.0601315 -0.43653879 261
-5.4750743 1.850668 -0.48845854 209
-4.1134992 1.225281 -0.40315405 25
-4.9886875 1.2920319 -0.53517652 27
-5.391345 2.0447636 -0.64462942 232
-5.4631457 1.8493986 -0.69990778 140
-6.1793199 1.8447338 -0.84556592 56
-6.1951909 1.6050841 -0.90204489 28
-5.4575052 2.0748696 -0.86946201 212
-5.0220718 1.7025279 -0.84045202 52
-5.0273209 1.5029261 -0.88334727 61
-5.0550923 1.3114901 -0.9322347 256
-4.6903567 1.7867714 -0.93767893 105
-4.5331764 1.5395229 -0.94065166 119
-4.3563566 1.3030857 -0.93892264 364
-4.2616644 1.1054054 -0.95463103 385
-3.9085736 1.4930961 -0.9429934 37
-3.7229595 1.2670454 -0.92507732 99
-3.8134997 1.1415025 -0.97774863 343
-3.726254 0.96611238 -0.98708439 320
-3.1095288 1.1910917 -0.88326561 29
-3.3416097 1.1390169 -0.97289789 319
-3.3375919 1.0004447 -0.99647754 305
-3.3070087 0.85655159 -1.0159279 310
-18.848673 7.35495 6.0778418 108
-18.899776 6.5694876 5.7832441 84
-19.034258 5.829257 5.5386257 82
-18.97994 5.0474229 5.2646246 123
-18.882124 7.3630667 5.2583761 100
-18.897835 6.5736189 4.9760733 99
-18.990086 5.8247933 4.7398047 126
-19.008259 5.0791159 4.4946461 100
-18.940062 7.3868012 4.473834 113
-5.4154978 1.8853725 1.2023462 228
-5.6171479 1.7279799 1.1737925 73
-19.030289 5.1006632 3.7408969 136
-5.545341 2.1636271 1.0818573 231
-5.3944845 1.8795348 0.98005432 198
-5.2237954 1.6086713 0.88459438 267
-5.3014574 1.4255058 0.83564001 286
-18.936661 7.3866177 2.9341373 121
-5.1121383 1.7832618 0.72828138 230
-5.0991626 1.5739938 0.66631222 151
-5.6824851 1.5305127 0.67873079 195
-5.386961 2.102807 0.62025237 175
-5.4504666 1.9043754 0.56335771 311
-5.8093262 1.7956483 0.53497022 195
-5.7604289 1.5553886 0.46739081 271
-5.5595555 2.1728635 0.42221516 163
-5.5033579 1.9243646 0.35658452 263
-5.5840588 1.7275137 0.3026498 140
-5.8781667 1.5907022 0.25661382 371
-5.4559956 2.1342552 0.20028636 83
-3.4447629 1.2063557 0.090093724 23
-3.8889132 1.205698 0.06189942 49
-4.8971009 1.3277829 0.029578209 60
-5.0624428 1.9830579 -0.011197432 54
-5.4210949 1.9005916 -0.067178816 140
-3.923178 1.2148204 -0.092482775 30
-4.7334332 1.2848257 -0.14993809 55
-5.1737547 2.0303073 -0.21438603 70
-5.3408713 1.8751879 -0.2713981 95
-3.8961275 1.2119608 -0.23433842 56
-4.6245522 1.2565714 -0.32149196 36
-10.904843 4.2837191 -0.87928927 41
-5.4970708 1.9335868 -0.49250093 134
-3.8814104 1.2082002 -0.38183203 27
-4.5808792 1.2465937 -0.49303177 37
-8.0071526 3.1497836 -0.9619444 110
-5.4962187 1.9360902 -0.70713574 144
-3.7596085 1.1728054 -0.51638806 34
-4.7647943 1.297089 -0.69603866 35
-5.4868412 2.1634541 -0.87829953 180
-5.0008011 1.7640282 -0.84045202 114
-0 0 -0 29
-4.9702334 1.3547848 -0.91958231 153
-4.5912814 1.8138554 -0.92225289 152
-4.5694532 1.6146511 -0.95221943 61
-0 0 -0 16
-4.2704086 1.1637865 -0.95971674 422
-3.6831701 1.4590324 -0.89286464 171
-0 0 -0 29
-3.8214495 1.1951712 -0.98347348 387
-3.7701943 1.0270423 -1.0019876 352
-0 0 -0 19
-3.3818979 1.1992705 -0.98883832 263
-3.3911245 1.0620153 -1.016275 513
-3.3184454 0.90311003 -1.0227692 311
-18.874195 7.6330953 6.1158175 108
-18.90447 6.8322692 5.8099003 81
-18.96129 6.0623975 5.5386257 95
-19.005884 5.3048849 5.2894807 126
-18.844193 7.6159868 5.2734447 95
-18.892403 6.8327546 4.9963465 111
-18.972757 6.0751896 4.7537313 121
-19.00082 5.3277864 4.5080085 115
-18.880583 7.6318445 4.4815712 118
-5.4361272 1.9676763 1.2121965 267
-5.5619073 1.7859875 1.1667415 229
-5.5062122 1.5484912 1.0860429 276
-18.882868 7.6358356 3.7019193 78
-5.415494 1.9617045 0.98817068 210
-5.5194335 1.7741553 0.93827397 219
-5.5005021 1.5516518 0.86995041 236
-18.899645 7.6407008 2.9427094 88
-5.1234107 1.858025 0.73308057 362
-5.3061404 1.7094784 0.69604719 353
-5.62886 1.5904064 0.6746062 205
-5.2501435 2.1240075 0.60745484 249
-5.437912 1.9751952 0.5645231 324
-5.7299709 1.8484526 0.52971166 199
-6.0401835 1.7107227 0.49175608 67
-5.4215274 2.195986 0.41374829 304
-5.1528769 1.8730879 0.33533964 293
-0 0 0 26
-5.9158726 1.6790845 0.25913996 254
-5.4849663 2.2235765 0.20233637 102
-3.2267923 1.1746715 0.084763609 20
-3.7482488 1.2127017 0.059892859 92
-5.792274 1.647063 0.03510445 51
-5.0154886 2.0360053 -0.011148004 83
-5.2620769 1.9176708 -0.065494955 100
-3.8623121 1.2481163 -0.091402158 37
-5.2248998 1.4873043 -0.16607165 81
-5.059588 2.057508 -0.21068573 56
-5.4638357 1.9940075 -0.27886909 233
-3.8809614 1.2596811 -0.23433842 43
-4.4821215 1.2771358 -0.31265643 41
-2.9379928 1.1959455 -0.23806444 41
-5.4280076 1.9844756 -0.48845854 161
-3.8549285 1.2520494 -0.38070983 20
-4.3701167 1.2470357 -0.47195938 30
-2.9320536 1.1951388 -0.35397956 33
-5.4496727 1.9952004 -0.70424449 190
-3.7449331 1.2188534 -0.51638806 32
-4.3028979 1.2282605 -0.6307196 29
-2.9437385 1.2026587 -0.47354233 26
-5.0121603 1.8375015 -0.84608734 167
-3.7062981 1.207853 -0.6562435 29
-4.3171601 1.2338802 -0.80149341 25
-4.306674 1.7628173 -0.86936384 51
-4.5050821 1.6543679 -0.94296521 104
-0 0 -0 22
-4.2219768 1.2064368 -0.95208812 319
-3.7299669 1.5307882 -0.9086948 336
-3.6249681 1.3338273 -0.90859085 106
-3.7954161 1.2383615 -0.98061109 249
-3.7237759 1.0636533 -0.99304563 307
-3.3689733 1.3862094 -0.96633625 224
-3.3343608 1.2286811 -0.97927403 259
-3.3339686 1.0892179 -1.0030768 409
-3.2407496 0.92482609 -1.0022454 267
-18.85331 7.8952107 6.1399837 110
-18.948719 7.1123548 5.849884 87
-18.885468 6.2946253 5.5386257 81
-18.972729 5.5474749 5.2988019 113
-18.835033 7.882535 5.297554 100
-18.92705 7.1091208 5.0282044 119
-18.963207 6.3297315 4.7704425 105
-18.990131 5.5770364 4.5213704 111
-18.893614 7.9082136 4.5073614 109
-5.6094556 2.1086233 1.2565225 216
-5.5507312 1.8578411 1.1690918 185
-19.080326 5.6194448 3.7767129 107
-18.863974 7.8989029 3.7169399 112
-5.59027 2.1029706 1.0246944 59
-5.1715112 1.7326219 0.88267726 238
-5.5720663 1.6459206 0.88439697 260
-5.3180547 2.2262812 0.83222234 221
-5.0334454 1.8956082 0.72348213 248
-5.2847629 1.7744642 0.69604719 285
-5.3574319 1.5849606 0.64435887 222
-5.4107676 2.2666471 0.62921059 234
-5.5026627 2.0754974 0.57384604 177
-5.4349213 1.8272052 0.50447059 195
-5.227325 1.5500418 0.42709449 216
-5.3941708 2.262351 0.41374829 305
-5.185533 1.9573296 0.33900258 240
-5.5399814 1.864033 0.3026498 229
-5.8833294 1.7481401 0.25863472 269
-5.3466835 2.2443001 0.19823633 121
-3.1448057 1.1887307 0.082986906 16
-5.6432114 1.9026051 0.090538546 119
-4.5870147 1.3654001 0.027899351 49
-5.1228766 2.1531961 -0.01144457 186
-4.991251 1.8886751 -0.062407892 136
-5.4498143 1.8352829 -0.12949389 100
-5.5625978 1.6574897 -0.17743845 72
-4.8460827 2.0403409 -0.2028226 181
-5.4277463 2.0566599 -0.27829438 234
-4.739068 1.6027493 -0.28731826 155
-5.2692657 1.5715874 -0.36888239 68
-8.9659367 3.7786036 -0.73020899 37
-5.4256048 2.059423 -0.49047977 249
-5.5141816 1.8660721 -0.54679692 101
-4.228682 1.262996 -0.45832431 20
-7.8065796 3.2943373 -0.94727856 92
-5.4025078 2.0534611 -0.70135337 231
-5.5100317 1.8684198 -0.76288146 100
-4.1964192 1.2537588 -0.61732084 22
-2.7538528 1.1647176 -0.44526237 39
-4.9560032 1.8862227 -0.84045202 182
-4.9349799 1.6755362 -0.87737089 71
-4.8562636 1.452654 -0.90482122 53
-2.883631 1.2218612 -0.58508515 36
-4.4844413 1.7095276 -0.94296521 178
-4.4167171 1.5003481 -0.96318942 92
-4.2068539 1.2581561 -0.95208812 337
-2.9674635 1.2606221 -0.72664797 93
-3.5974145 1.3740427 -0.90584308 65
-3.6254632 1.2323375 -0.94053745 142
-3.6658955 1.0959518 -0.98112315 262
-3.2770088 1.3956338 -0.94479936 143
-3.2217841 1.2323097 -0.95058125 152
-3.2220514 1.0965934 -0.97338039 337
-3.2291567 0.96452546 -1.0022454 294
-18.80773 8.1488199 6.1572452 102
-18.892239 7.3568983 5.8598795 82
-18.894178 6.5562243 5.5643582 94
-18.96973 5.8002167 5.3174443 123
-18.864792 8.1684599 5.3337183 83
-18.849234 7.3450775 5.0311003 104
-18.917181 6.5734558 4.7787981 130
-5.3661156 1.6477191 1.2823393 89
-18.838163 8.1581011 4.5176778 109
-18.910517 7.374661 4.2559237 118
-5.4163904 1.8871009 1.1455885 214
-5.4665523 1.6831541 1.0860429 228
-18.841457 8.162652 3.7319608 109
-18.884691 7.3699059 3.4778738 93
-5.3064532 1.850564 0.90951705 223
-5.4607663 1.6861737 0.86995041 130
-18.880817 8.1777477 2.9701407 119
-5.0098042 1.9572335 0.72348213 210
-5.1501813 1.799898 0.6811797 181
-5.2350793 1.6188884 0.63198501 151
-5.3606501 2.3233855 0.62665111 132
-5.1876001 2.029722 0.5435465 196
-5.3669572 1.8779702 0.50026375 201
-5.9163914 1.8336499 0.4851962 253
-5.4977732 2.3855524 0.42390856 158
-5.4064922 2.1168902 0.35511938 184
-5.5166898 1.9318768 0.3026498 237
-5.7011347 1.7704266 0.25156152 91
-18.959356 8.233387 0.70663977 81
-2.9289477 1.1484096 0.077656791 16
-5.5628295 1.9518499 0.089626469 64
-3.916796 1.2184182 0.023912063 63
-5.0300403 2.1871889 -0.011296287 63
-4.9788675 1.9541672 -0.062548213 76
-5.4834909 1.9218626 -0.13084467 115
-3.8354831 1.1942987 -0.1228044 51
-5.0845251 2.2145746 -0.2139235 175
-5.1008978 2.004735 -0.26277775 107
-5.0128651 1.7641898 -0.30520758 85
-3.8093057 1.1872416 -0.26767567 25
-9.0724602 3.9552956 -0.742782 27
-9.9282942 3.9085822 -0.90179551 65
-5.5021358 1.9375675 -0.54791915 68
-3.8710501 1.2081163 -0.42113775 41
-7.7655649 3.3898878 -0.94727856 187
-5.4988103 2.1676605 -0.71725488 96
-5.4754682 1.9319367 -0.76132137 109
-3.7723818 1.1776842 -0.55702633 30
-6.3169122 2.7635503 -1.0267694 74
-5.2632141 2.077441 -0.89680558 119
-4.8024697 1.6965533 -0.85744953 83
-3.8683903 1.2090647 -0.72347033 38
-4.2405071 1.8585072 -0.86495638 300
-4.2550712 1.6821789 -0.89900774 168
-4.3979731 1.5544351 -0.96318942 94
-3.9784184 1.2432252 -0.9037739 54
-2.8124433 1.2357254 -0.69234937 119
-3.6997457 1.4654025 -0.93606842 280
-3.6430278 1.2883915 -0.94912463 75
-3.6521704 1.1408554 -0.98112315 253
-3.2384059 1.4263918 -0.93864602 170
-0 0 -0 12
-3.2192278 1.1399014 -0.97668004 304
-3.2390368 1.0109333 -1.0090867 306
-18.800711 8.4212885 6.1883163 103
-18.821917 7.5968108 5.8665438 93
-18.910172 6.8229041 5.593307 91
-18.93025 6.0431428 5.3267655 118
-18.805538 8.4183283 5.3457727 83
-18.876455 7.6238046 5.0629578 101
-18.911934 6.8328676 4.798295 120
-18.914387 6.0628238 4.5374055 80
-18.822205 8.4269724 4.5383105 109
-18.916594 7.6457763 4.2780867 137
-5.3817606 1.9494185 1.1432382 233
-5.34447 1.7176452 1.0658964 264
-18.847624 8.4415121 3.7534192 118
-18.935364 7.6587467 3.504252 85
-5.4838014 1.9882212 0.94402534 309
-5.5412865 1.7858092 0.88620275 208
-5.2726574 2.360976 0.83393675 127
-5.2720218 2.1346123 0.76507539 222
-5.0493631 1.8345002 0.67077243 234
-5.4303699 1.7525749 0.65810764 156
-18.866138 8.4533634 2.217381 119
-5.084826 2.0618138 0.53538895 291
-4.9840288 1.8129299 0.46660906 340
-5.8592958 1.8950706 0.48238483 190
-18.868896 8.4640903 1.4627949 135
-5.4356012 2.2055943 0.35878229 302
-5.4024792 1.9666353 0.2976858 240
-3.8426969 1.2452135 0.17021979 51
-2.7079086 1.2156619 0.10147568 286
-2.8034949 1.1391081 0.074695617 18
-5.4257355 1.9788555 0.087802328 152
-3.8330677 1.2441634 0.023492349 61
-2.6167903 1.1762381 -0.005908669 70
-2.8426619 1.1561785 -0.035887167 44
-5.0762396 1.8493812 -0.12165942 142
-3.8547611 1.2523948 -0.12390442 51
-2.5640185 1.1544006 -0.10846499 34
-2.8335192 1.1539588 -0.14669003 39
-5.4296346 1.9860775 -0.33204153 217
-3.7830634 1.2301956 -0.26687247 26
-2.5974202 1.1705297 -0.21381643 29
-2.8933854 1.1802827 -0.26410449 32
-5.3545299 1.959771 -0.53557485 63
-3.7764878 1.229661 -0.41246089 35
-7.8646955 3.5486917 -0.96461093 29
-7.5009737 3.0638018 -0.98324394 38
-5.4625187 2.0030801 -0.76288146 158
-3.7915411 1.2349284 -0.56205088 24
-6.3582273 2.8750925 -1.0391419 29
-5.3909063 2.2046816 -0.92310399 99
-4.8368316 1.7757506 -0.86741018 40
-3.7746429 1.2308092 -0.70870924 19
-4.6901579 2.1245649 -0.96191972 80
-4.0052862 1.6405443 -0.85042316 44
-4.4999127 1.6528596 -0.98988301 56
-0 0 -0 16
-2.8183849 1.2798257 -0.69762605 220
-3.692291 1.5151283 -0.93881619 294
-0 0 -0 19
-3.648947 1.1891891 -0.98410374 282
-3.2312145 1.47083 -0.94172269 278
-3.2440746 1.3329896 -0.96652174 87
-3.2483077 1.1952572 -0.98987836 328
-3.2045135 1.0434824 -1.0022454 313
-18.737675 8.6706743 6.2021255 95
-18.812366 7.8627777 5.8931999 80
-18.922451 7.0909586 5.6222558 93
-18.93165 6.300612 5.348515 110
-18.7957 8.6923475 5.3728962 100
-18.87817 7.8953128 5.0890231 118
-18.914087 7.0972371 4.8205771 134
-5.5903578 1.8678906 1.3464786 216
-18.834381 8.7114334 4.5666804 97
-18.875515 7.9000087 4.2904 76
-5.4014893 2.0318868 1.1526395 221
-5.4235992 1.8168031 1.0860429 225
-18.849764 8.7217436 3.7748773 120
-5.3345327 2.234205 0.99222887 253
-5.6696258 2.1346729 0.98045075 183
-5.4289865 1.823457 0.87175626 148
-18.82535 8.7084532 2.994143 88
-5.3551097 2.2451305 0.7810728 372
-5.0153303 1.8921225 0.66928571 201
-5.3519592 1.8000804 0.65123332 196
-18.836777 8.719327 2.2263391 140
-18.934385 7.9495144 2.0037513 76
-5.4646287 2.0640256 0.51393604 130
-5.5068331 1.8560231 0.45520821 210
-18.893936 8.7553978 1.4729552 121
-18.924299 7.9507198 1.2554632 118
-5.1985803 1.9649891 0.28775775 133
-5.4969392 1.8561078 0.24448833 238
-2.5839872 1.198344 0.097375661 167
-2.7671897 1.1641217 0.074103385 16
-5.3000541 2.0070455 0.086160585 100
-5.5680718 1.8831586 0.034265019 122
-18.884472 8.7686348 -0.042880584 51
-5.5044618 2.3179193 -0.069844916 60
-4.9521742 1.8733329 -0.11922804 160
-5.4978209 1.8611102 -0.17743845 100
-13.585498 6.3182507 -0.57794034 131
-4.7409124 1.9989234 -0.24668635 96
-5.4384527 2.0653176 -0.33410567 269
-5.2872291 1.7913641 -0.37450498 109
-9.1679344 4.2676535 -0.75894737 20
-9.8954744 4.1789694 -0.90785915 81
-5.4305921 2.0635257 -0.54567474 160
-5.4791884 1.8587474 -0.60087281 126
-7.7557001 3.6147091 -0.95661145 118
-7.4408669 3.1463406 -0.9803527 82
-5.4597659 2.0784287 -0.76600158 214
-5.767767 1.9572054 -0.85849887 46
-6.386991 2.9830372 -1.0497469 26
-5.3852739 2.2799118 -0.92686093 66
-4.8478489 1.8476151 -0.87338656 48
-4.8554325 1.6494141 -0.91536486 38
-2.8153348 1.3171743 -0.58067775 83
-2.8682628 1.2161393 -0.6121273 67
-4.1718254 1.5907192 -0.92193592 22
-4.057754 1.378202 -0.92920244 46
-2.6540859 1.2447265 -0.66068906 60
-3.5336509 1.5009558 -0.9030953 110
-3.5232072 1.3441756 -0.92622542 165
-3.5900519 1.2189292 -0.97218126 244
-2.667084 1.2537767 -0.781735 51
-3.1210136 1.3274202 -0.93464082 65
-3.2333953 1.2350289 -0.98987836 258
-3.2023592 1.0864234 -1.005666 298
-18.785412 8.9742727 6.253911 106
-18.830854 8.1433754 5.929852 87
-18.887886 7.3435793 5.638339 83
-18.940521 6.5628161 5.3733706 118
-18.844847 8.9974146 5.4181013 99
-18.801235 8.1356316 5.0948157 105
-18.945217 7.3753867 4.8512149 129
-5.4233737 1.8863901 1.3117365 263
-18.789515 8.9722042 4.5821552 95
-18.917255 8.1917162 4.3224134 133
-5.3322988 2.0809064 1.1432382 225
-5.3786316 1.875459 1.0815659 227
-18.837196 8.9982033 3.7941899 125
-18.882786 8.1822691 3.5306304 111
-18.928015 7.3930478 3.2886717 150
-5.1038351 1.7842381 0.8229993 295
-18.845676 9.0002346 3.0147166 125
-5.3271551 2.3106768 0.7810728 273
-5.036088 1.9708841 0.67523271 237
-5.2507057 1.8380508 0.64160913 248
-18.825249 8.9961281 2.2378569 127
-18.879225 8.2003021 2.0084126 113
-5.4834085 2.1483724 0.51814288 131
-5.4384856 1.9076214 0.45145971 247
-2.663528 1.2742059 0.20884974 468
-18.902201 8.2157726 1.2605913 123
-4.8951502 1.9192754 0.2722452 274
-5.5303044 1.9432975 0.24701448 303
-2.4609151 1.1781752 0.093275629 213
-0 0 0 15
-5.4760494 2.150893 0.089444056 51
-5.5445437 1.9513456 0.034265019 109
-2.4897461 1.1934209 -0.005686244 24
-5.167583 2.2511129 -0.06591592 98
-4.9064765 1.9251983 -0.11868773 113
-5.0899248 1.7929448 -0.16497162 227
-16.004021 7.6833029 -0.68478644 31
-4.880826 2.1288307 -0.25530675 233
-13.761649 5.4203029 -0.84945524 33
-5.445518 1.9198065 -0.38735664 124
-0 0 -0 11
-9.7338734 4.2522197 -0.89775312 176
-9.106287 3.5887141 -0.91937077 81
-5.478476 1.9337912 -0.60335189 111
-7.6355305 3.6734197 -0.94727856 119
-7.4344392 3.2517359 -0.98468953 294
-5.4338493 2.145272 -0.76600158 122
-5.4856076 1.9368469 -0.8199774 141
-6.2216048 2.9993398 -1.0285369 171
-6.1385751 2.6881316 -1.0621097 26
-4.8688307 1.9243652 -0.88135511 68
-4.6343417 1.6380122 -0.87740767 73
-5.1039844 2.4647253 -1.058883 68
-2.8854733 1.2654331 -0.61906797 360
-4.1301336 1.6331513 -0.91708261 133
-4.0958228 1.4474308 -0.94191676 84
-2.6912956 1.3027041 -0.67388082 221
-3.6326065 1.5958885 -0.93332064 274
-3.5172832 1.3915968 -0.92908788 185
-3.5638633 1.2590209 -0.96920061 208
-2.6828039 1.3016003 -0.79096502 176
-3.1044893 1.3656199 -0.93464082 160
-3.1429098 1.2448736 -0.96678126 195
-3.1128626 1.0988386 -0.98172164 285
-18.601711 9.1685562 6.2297444 91
-18.824221 8.416194 5.9598398 79
-18.839237 7.5920944 5.6512051 84
-18.945797 6.8261828 5.3982272 96
-18.868473 9.2947197 5.4572792 89
-18.785025 8.4037838 5.1179852 127
-18.89658 7.6247888 4.8623562 131
-5.3558116 1.936887 1.3010466 240
-18.846205 9.284976 4.6234202 110
-18.836746 8.4328413 4.3273382 139
-5.2627249 2.1285362 1.133837 230
-5.4438801 1.9734651 1.0994737 274
-18.81008 9.270443 3.8113565 103
-18.834923 8.4375496 3.5407758 107
-5.384944 2.1798277 0.94019109 185
-5.2042041 1.8913085 0.84286326 202
-18.840347 9.2833166 3.0318608 146
-5.2549911 2.356411 0.77467382 229
-5.19911 2.1086164 0.70050746 209
-5.2389569 1.9064232 0.64298403 221
-18.82045 9.2792282 2.2506542 143
-18.864334 8.4705 2.0177355 100
-5.3901777 2.1885188 0.51183259 188
-5.1561565 1.8799621 0.42990583 155
-2.6047556 1.2856044 0.20546301 412
-18.920137 8.501112 1.2686497 132
-5.4374571 2.2092628 0.30389079 156
-5.4046855 1.9739977 0.24246743 288
-2.435519 1.2029747 0.092865631 317
-0 0 0 19
-5.3492227 2.1772208 0.087802328 50
-5.3511376 1.9574044 0.033215735 146
-18.814184 9.3039122 -0.043226574 36
-2.6121817 1.1762701 -0.033501707 53
-4.9047089 1.9943011 -0.11922804 29
-4.9323802 1.8057879 -0.16057156 209
-15.725859 7.7886453 -0.67692327 63
-2.6470737 1.1934272 -0.13921903 33
-2.8238587 1.1524601 -0.1751661 39
-5.3091273 1.9452949 -0.37932438 173
-2.2630999 1.1218437 -0.18956845 30
-9.8989162 4.4697661 -0.91796517 20
-0 0 -0 11
-5.4207163 1.9885429 -0.59963322 137
-7.6112423 3.7774463 -0.94994509 59
-7.1660233 3.2396686 -0.95433205 67
-7.2902436 2.9820902 -1.0327761 40
-5.483737 2.0122044 -0.82332706 165
-6.14182 3.0543225 -1.021467 33
-6.0511374 2.7388234 -1.0527174 17
-4.9215055 2.0153589 -0.89530009 22
-4.6249804 1.6988324 -0.87951642 32
-2.4548488 1.2228259 -0.51236272 39
-2.8482778 1.2910248 -0.6144408 248
-4.0010333 1.6391591 -0.89281583 61
-3.9456494 1.4490683 -0.91140246 61
-2.6332128 1.3147155 -0.6633274 81
-2.8363092 1.2878084 -0.7327345 203
-3.5646386 1.4611745 -0.9462623 174
-3.4281154 1.2585928 -0.93641371 63
-2.4695494 1.2358025 -0.73250794 93
-3.1506865 1.4323406 -0.95376933 190
-2.8498802 1.1694674 -0.88099176 24
-3.1423373 1.1528015 -0.99540412 279
-18.569761 9.4377937 6.2573633 100
-18.876509 8.7190733 6.00982 60
-18.808668 7.8494244 5.6705041 99
-18.882313 7.066288 5.4044414 103
-18.918688 9.6097298 5.5054979 93
-18.839046 8.7069559 5.1614275 95
-18.866209 7.8831058 4.8790674 133
-5.2878327 1.9860121 1.2903568 201
-18.981609 9.6429415 4.685318 113
-18.806461 8.6978722 4.3445764 108
-5.2145 2.1838663 1.1291362 83
-5.595788 2.1065793 1.1352897 183
-18.958036 9.6342955 3.8650024 109
-18.858765 8.7276564 3.565125 108
-5.3359385 2.2365866 0.93635678 192
-18.88825 7.1279526 3.0730424 66
-18.989725 9.6483145 3.0747223 122
-18.844278 8.7293396 2.793545 132
-5.3375244 2.2414143 0.72280872 119
-5.3378339 2.0169196 0.65810764 152
-19.00297 9.6608868 2.2864873 137
-18.878147 8.7566376 2.0305545 112
-18.839994 7.9200883 1.798075 71
-5.4124093 2.0489852 0.45333397 209
-2.5994511 1.322901 0.20630969 367
-18.846985 8.7477798 1.2708476 111
-18.963776 7.9775772 1.0652467 106
-5.480948 2.0784328 0.24701448 291
-2.4740076 1.2599851 0.094915643 84
-2.4613709 1.143849 0.066996567 19
-5.4768996 2.3079309 0.090356126 77
-5.3267145 2.0229237 0.033215735 176
-2.245898 1.1451447 -0.0051919674 16
-18.928116 8.8043156 -0.24412395 54
-4.8688092 2.0496843 -0.11895788 100
-4.9322729 1.8747029 -0.16130491 272
-15.757248 8.0464802 -0.68247378 52
-13.541448 6.3062105 -0.71620941 104
-4.7186785 1.9936603 -0.29419875 149
-5.4639087 2.0784092 -0.392176 259
-9.6119957 4.912622 -0.81013757 34
-9.7241163 4.5353084 -0.90684855 121
-9.1585321 3.8715882 -0.93395948 43
-5.4293685 2.0676572 -0.60335189 194
-7.5643139 3.8705635 -0.94994509 159
-7.2552533 3.3878448 -0.97167909 79
-7.1764059 3.0388522 -1.0218555 48
-5.40311 2.0581973 -0.81495279 209
-6.1883707 3.1727827 -1.0356069 219
-2.4631968 1.1515006 -0.43094882 26
-0 0 -0 11
-4.6810513 1.7849225 -0.89427757 57
-4.9790006 2.5569093 -1.0456607 72
-2.7042508 1.2659724 -0.58667821 60
-2.8986824 1.2292984 -0.65014786 18
-4.0590672 1.5475115 -0.94191676 90
-2.7209663 1.4005036 -0.68971097 306
-2.7039552 1.2679634 -0.70250922 48
-3.4177053 1.4501843 -0.91191345 75
-3.1951766 1.2177716 -0.87680119 20
-2.5675879 1.3245074 -0.76635152 215
-2.6511605 1.2447308 -0.80711734 69
-3.0052207 1.2765228 -0.93378526 109
-3.127954 1.191276 -0.99540412 238
-18.554354 9.7182865 6.2918863 106
-18.820118 8.9748716 6.0264797 75
-18.848904 8.139225 5.7123194 72
-18.902227 7.3394246 5.4355121 93
-18.891953 9.8896503 5.5326214 93
-18.751801 8.9475145 5.1672196 102
-18.875189 8.1603489 4.90692 116
-18.888529 7.3599148 4.6309419 112
-18.965675 9.9295082 4.7111087 124
-18.825489 8.9887276 4.3741269 137
-18.867764 8.1755161 4.1070008 132
-5.2620301 2.0550058 1.0726119 85
-18.901134 9.8990812 3.8778775 84
-18.771587 8.9686232 3.5691833 104
-18.882166 8.1884117 3.3308487 98
-18.954016 7.4197464 3.0983236 110
-18.943546 9.9191866 3.0867233 146
-18.843027 9.01124 2.8095424 115
-18.873987 8.1997404 2.5693533 97
-5.1794944 2.0300694 0.64160913 209
-18.967537 9.9376545 2.2967255 133
-18.866217 9.0340652 2.0410428 97
-18.894854 8.217432 1.812799 107
-5.5538917 2.1808386 0.46739081 194
-2.2650023 1.1879113 0.18090905 154
-2.63291 1.2615567 0.17856699 312
-18.908403 8.2288189 1.0677286 125
-5.2876692 2.0797107 0.23943606 381
-2.4477398 1.2846767 0.094505638 282
-0 0 0 21
-18.965921 8.2676344 0.31454393 17
-5.234499 2.0617526 0.032796018 93
-18.601433 9.7739964 -0.043276001 20
-16.590374 7.9660048 -0.21521777 26
-19.021187 8.2838249 -0.46718657 33
-4.8865781 1.9262908 -0.16057156 131
-15.572426 8.1945677 -0.67877346 45
-4.9936137 2.4005139 -0.2656512 111
-4.9902549 2.1809537 -0.31277615 157
-0 0 -0 12
-9.4980478 5.0023251 -0.80564719 27
-9.5599909 4.6024284 -0.89674252 119
-9.0337057 3.9501796 -0.92610407 158
-8.5452709 3.3749261 -0.95414507 115
-7.547894 3.9797847 -0.95394492 58
-7.1809402 3.4611063 -0.96734244 149
-7.0622835 3.0932739 -1.0109349 222
-5.499012 2.1723709 -0.83337611 188
-2.0770593 1.0973048 -0.34981743 40
-5.9287291 2.8607476 -1.0433252 209
-5.4883027 2.4063838 -1.008852 48
-4.7466798 1.8769841 -0.91114742 40
-2.3198373 1.2275325 -0.4903256 24
-2.7627263 1.3349221 -0.60287309 395
-2.8510921 1.2506146 -0.6428678 197
-4.0070534 1.5842702 -0.9342882 140
-2.424341 1.2857021 -0.61847532 56
-3.0351684 1.4689819 -0.79318517 136
-3.5383768 1.5528982 -0.94912463 197
-3.5151074 1.3893437 -0.96920061 214
-2.9813099 1.5845481 -0.89557242 52
-2.6044533 1.2620366 -0.79755306 175
-3.0104556 1.3225865 -0.94038445 148
-3.1130998 1.2295711 -0.99540412 258
-18.504499 9.9834433 6.3160529 96
-18.791317 9.245863 6.0531359 75
-18.800386 8.3934822 5.7284021 87
-18.886005 7.6011248 5.4572616 96
-18.871407 10.175868 5.5627584 72
-18.818199 9.2643938 5.216454 117
-18.805597 8.405652 4.9152761 113
-18.872721 7.6218171 4.6496491 89
-18.945547 10.217127 4.7368994 98
-18.861265 9.2917309 4.4086027 119
-18.819714 8.4304905 4.118752 128
-5.1708465 2.0928855 1.059181 115
-18.934099 10.214366 3.9100649 126
-18.766197 9.250596 3.589474 108
-18.866735 8.4582767 3.3461857 135
-18.883524 7.6607022 3.1019354 109
-18.935383 10.212925 3.1055822 150
-18.869677 9.3102036 2.830339 139
-18.880566 8.4795198 2.5842209 114
-5.4634438 2.2190855 0.68010569 178
-18.970158 10.237665 2.3120823 117
-18.839598 9.3072224 2.0503659 109
-18.87981 8.4878941 1.8212125 117
-5.4159002 2.2037401 0.45801958 222
-2.2081277 1.1928595 0.17752229 414
-2.574281 1.2725405 0.17563665 373
-18.926218 8.5143175 1.0745541 147
-5.4171877 2.2077911 0.24650925 273
-2.3895905 1.2918042 0.092865631 300
-0 0 0 16
-2.5743871 1.1600281 0.042928282 38
-2.920115 1.191766 0.018385822 41
-2.4176352 1.3084377 -0.00566153 175
-17.7924 8.8134594 -0.23219663 46
-0 0 -0 14
-2.8416667 1.1606753 -0.093837351 35
-15.344188 8.3164825 -0.67322308 30
-2.2899425 1.1356167 -0.12255298 28
-4.9740334 2.2469597 -0.31346419 42
-2.840009 1.1608659 -0.20582713 27
-10.277424 5.5749612 -0.87749308 115
-2.4238901 1.2037833 -0.22873335 23
-9.093421 4.1099458 -0.93732613 33
-8.503212 3.4795356 -0.95414507 37
-7.4775276 4.0607266 -0.95127839 149
-2.369827 1.1782746 -0.32116249 40
-6.8503656 3.1011949 -0.9859736 84
-6.8025804 2.7843258 -1.0360327 25
-6.0773659 3.3066792 -1.0303044 226
-0 0 -0 18
-5.6092572 2.5419343 -1.036742 27
-4.7123575 1.9306133 -0.90903872 107
-2.418534 1.3179979 -0.51456642 218
-2.6302142 1.3109466 -0.57742399 76
-2.7713094 1.2563928 -0.6283077 177
-3.9656055 1.6244328 -0.92920244 181
-2.675503 1.4612465 -0.68707263 290
-2.5779626 1.2869824 -0.67777944 77
-3.0202489 1.3699503 -0.81459183 157
-3.5085502 1.43678 -0.97218126 176
-3.0430367 1.6655653 -0.92018592 206
-2.8371265 1.4180341 -0.87406719 83
-3.1095567 1.4118992 -0.97668004 448
-3.0658407 1.2546122 -0.98514223 143
-18.55139 10.304641 6.3747425 104
-18.861492 9.5696535 6.113112 41
-18.853439 8.6961927 5.7766504 92
-18.887594 7.8724461 5.4852247 102
-20.430902 11.342579 6.0630293 16
-18.921156 9.6053238 5.2772732 104
-18.796404 8.6798334 4.9403434 127
-18.885696 7.8979764 4.676374 111
-2.2814734 1.2667569 0.57427382 31
-18.965712 9.6341887 4.4603167 139
-18.821634 8.7102242 4.1422553 127
-18.866589 7.9070129 3.8841605 97
-18.8899 10.491809 3.9272318 94
-18.988655 9.65168 3.6544054 93
-18.869007 8.738946 3.3653569 164
-5.3238854 2.2362745 0.87897944 193
-18.974764 10.536777 3.1330135 126
-18.966005 9.6489162 2.8623338 115
-18.893906 8.7657003 2.6005752 110
-5.3478899 2.2489934 0.66910666 174
-21.638275 12.022757 2.6550555 22
-18.990017 9.6732359 2.0795 108
-18.936855 8.7944641 1.8369882 126
-5.2230749 2.200367 0.44396272 69
-2.1828623 1.2140489 0.1766756 408
-2.558471 1.3040351 0.17563665 195
-18.874649 8.7711821 1.0776567 108
-18.987713 8.0115976 0.86844516 133
-2.2478068 1.2510425 0.087945595 246
-0 0 0 19
-5.3882399 2.5079565 0.090356126 89
-5.1381097 2.1709113 0.032516208 49
-2.3909142 1.3321667 -0.0056368164 180
-16.315079 8.33255 -0.21423551 46
-18.823042 8.7531929 -0.46745676 38
-2.7167356 1.1487467 -0.090170637 32
-15.303802 8.5392094 -0.67599821 124
-14.495439 7.4115062 -0.78057486 16
-4.9895115 2.3280921 -0.31621638 81
-2.7593906 1.1676346 -0.20100778 27
-10.41719 5.8173485 -0.89545453 145
-9.4441624 4.8356562 -0.89674252 66
-8.9232168 4.1656342 -0.92498183 81
-8.3499689 3.5370655 -0.94174957 43
-7.5624557 4.2278347 -0.9686107 170
-7.0726357 3.6254249 -0.96445119 193
-6.7471247 3.1547883 -0.97661304 112
-6.7350774 2.8536873 -1.0310081 18
-2.1219921 1.1885492 -0.36218992 99
-5.7934685 2.972918 -1.0320544 302
-0 0 -0 17
-2.7850726 1.1811391 -0.54001081 33
-2.2169995 1.2436961 -0.47489965 73
-2.7081873 1.3915578 -0.59824598 338
-2.585393 1.2105708 -0.58948088 73
-2.8656812 1.215148 -0.67491674 84
-2.4124665 1.3562849 -0.623752 44
-2.6242936 1.3505932 -0.69426596 217
-2.6760669 1.2536539 -0.72585738 38
-3.2873154 1.3935293 -0.91554928 66
-0 0 -0 17
-2.9943383 1.5428221 -0.92826468 226
-2.8935235 1.3568807 -0.9139877 56
-0 0 -0 8
-18.463449 10.554334 6.3885522 101
-18.609831 9.7309494 6.0697961 21
-18.734867 8.9219284 5.7734342 56
-18.842779 8.1265841 5.5007596 92
-20.138893 11.506013 6.0178246 21
-18.935999 9.9069719 5.3149233 100
-18.814907 8.9701185 4.9737659 124
-18.883984 8.170949 4.7004261 122
-2.0927722 1.1958151 0.5304296 29
-18.939703 9.915226 4.4824796 113
-18.808893 8.9861956 4.1634083 122
-18.908749 8.1989098 3.9132612 127
-18.933981 10.822429 3.9637105 110
-18.952597 9.9278774 3.6706378 113
-18.888594 9.0311575 3.3883624 146
-5.2742815 2.2919819 0.87536788 66
-18.926527 10.815977 3.146729 115
-18.983099 9.9527235 2.8831303 113
-18.892307 9.0483322 2.6154425 137
-5.2870951 2.3001838 0.66498202 77
-21.644476 12.376225 2.6742518 24
-18.975632 9.9610558 2.0911536 119
-18.784391 9.0055161 1.8327814 105
-5.5027595 2.3981228 0.47020221 107
-2.1574109 1.2347984 0.17582892 254
-2.4044259 1.2629273 0.16611309 249
-2.5256696 1.2116026 0.14504232 65
-18.88797 8.2440023 0.86844516 127
-2.2322853 1.2785324 0.087945595 222
-0 0 0 24
-2.4586227 1.1812872 0.041468963 136
-5.5179167 2.4116075 0.03510445 77
-2.2911048 1.3136553 -0.0054391054 89
-17.846825 9.3927517 -0.23584498 66
-18.843992 9.0458221 -0.4706986 22
-16.878538 7.3823853 -0.56317693 81
-1.9601758 1.1255014 -0.087188281 23
-2.1235266 1.118839 -0.11508199 19
-4.9281855 2.3735502 -0.31415221 114
-8.9749317 3.9282818 -0.65724117 15
-0 0 -0 14
-9.3841105 4.9511867 -0.89674252 31
-8.7530327 4.2177725 -0.91263753 117
-8.295002 3.6344759 -0.94051003 169
-7.3032598 4.2013841 -0.94194561 50
-6.8801441 3.6340516 -0.94421285 35
-6.7186174 3.2425196 -0.97817308 215
-6.7866168 2.9742792 -1.0444069 140
-2.1380975 1.2322801 -0.36749241 127
-5.5993862 2.9606884 -1.0038775 41
-5.5664964 2.6891217 -1.0407262 45
-4.674377 2.0504243 -0.91114742 70
-2.2526512 1.3002936 -0.48591819 176
-2.48278 1.314495 -0.55197495 40
-2.7290602 1.318912 -0.62588102 260
-2.8612938 1.2549332 -0.6774596 288
-2.5375049 1.4678502 -0.66068906 180
-2.5456021 1.3498613 -0.67777944 66
-2.660481 1.2863989 -0.72585738 195
-3.4402964 1.5084482 -0.96323937 215
-2.9611058 1.7164758 -0.90787911 65
-0 0 -0 19
-3.0532002 1.4777336 -0.97008079 351
-2.6970024 1.1817545 -0.875682 25
-18.471235 10.86167 6.4368844 104
-18.519466 9.9749889 6.0797925 44
-18.841864 9.2582283 5.840981 77
-18.847496 8.4044065 5.5318303 100
-18.794506 11.046026 5.6561823 68
-18.874508 10.171747 5.3323007 65
-18.808149 9.251852 5.0016189 107
-18.835686 8.4259548 4.7137885 123
-18.809231 11.056005 4.8013759 69
-18.940651 10.213793 4.5120306 134
-18.813307 9.2735634 4.1892619 138
-18.806711 8.4303322 3.9132612 107
-18.901524 11.113806 3.9851692 71
-18.933428 10.21587 3.6909289 111
-18.871956 9.3094349 3.4056165 134
-18.902584 8.49154 3.1543038 128
-18.89476 11.10761 3.1638734 159
-18.974642 10.247089 2.9007275 126
-18.790524 9.2847643 2.6169295 106
-18.859463 8.4816637 2.3849528 126
-18.889015 11.110445 2.3504748 44
-19.051577 10.301096 2.1132958 90
-18.758184 9.2777481 1.8411951 66
-18.802073 8.4700613 1.6153684 99
-2.2658763 1.3340573 0.18598917 211
-2.188587 1.1840496 0.15219401 196
-2.5428331 1.2584518 0.14690381 254
-18.94931 8.5491238 0.87602359 158
-2.1750956 1.2814784 0.086305581 114
-1.9963028 1.0812382 0.056040224 21
-2.3256862 1.1527547 0.039462402 36
-2.6227493 1.184816 0.016776918 32
-15.784145 9.3094034 -0.0377401 71
-16.401047 8.8905458 -0.21816452 33
-2.4117744 1.1943768 -0.060604583 26
-2.4254196 1.0964888 -0.081370518 24
-15.15158 8.9488001 -0.67877346 136
-14.372394 7.7993107 -0.78402299 15
-4.8879585 2.4285173 -0.31346419 31
-2.5771821 1.1659106 -0.18976258 19
-10.199179 6.0286241 -0.88916802 183
-9.4487209 5.1344819 -0.9088698 180
-8.7648058 4.3567762 -0.91937077 30
-8.0649376 3.6522887 -0.91943759 54
-7.3024693 4.3210554 -0.94861186 161
-7.1803575 3.9060631 -0.99191743 303
-6.6570187 3.3141181 -0.97505295 19
-6.6413679 3.0083091 -1.0276585 124
-2.0615549 1.2221098 -0.35688743 84
-2.2422273 1.2210239 -0.40465045 128
-2.2709537 1.1316557 -0.42714763 16
-4.7887321 2.1710434 -0.9385609 43
-2.0438085 1.2134222 -0.44404772 113
-2.5181518 1.3730478 -0.56354266 69
-2.6180112 1.3051139 -0.60404098 46
-2.9631727 1.3432117 -0.70543104 108
-2.1973672 1.3073415 -0.57626152 64
-2.6621227 1.4537804 -0.71350026 267
-2.4776385 1.2357302 -0.6800589 84
-3.1886013 1.4449964 -0.8976655 136
-1.963477 1.1706008 -0.60636377 20
-2.9961767 1.6380403 -0.94101697 54
-2.84903 1.4223293 -0.91068816 68
-3.0280623 1.3713523 -0.98856288 232
-18.474239 11.170777 6.4852176 80
-18.587214 10.307726 6.1430998 57
-18.953711 9.6037064 5.9117451 77
-18.858742 8.6884117 5.5660081 99
-18.87624 11.408006 5.7224832 52
-21.253237 11.792501 6.044754 21
-18.963852 9.6192465 5.0740352 106
-18.805204 8.6908178 4.7324958 110
-2.1931825 1.325624 0.56395751 77
-18.885763 10.48536 4.5292683 113
-18.981327 9.6476955 4.2527208 108
-18.819521 8.7149792 3.9378846 137
-18.814234 11.375463 3.9958982 66
-18.899689 10.499134 3.7091908 103
-19.030815 9.6799555 3.455462 132
-18.829241 8.7378454 3.1597214 100
-18.929819 11.443093 3.1930192 129
-18.920225 10.51962 2.9119256 117
-19.004076 9.6822252 2.6630187 130
-18.883694 8.7727308 2.4014513 123
-18.822718 11.38463 2.3594332 23
-15.709628 8.7449446 1.7543626 19
-15.76768 8.0409679 1.5572332 139
-18.848566 8.7708149 1.6284879 100
-1.9523816 1.1819853 0.16143522 41
-2.1320362 1.1875049 0.14926369 241
-2.5805712 1.3167962 0.15000632 270
-2.6833146 1.2504519 0.12474926 107
-1.8207083 1.1030076 0.072775491 26
-2.0876598 1.1640774 0.059001394 25
-2.4609449 1.2576494 0.042016208 42
-18.886793 8.8126755 0.12149566 62
-1.8682753 1.1330281 -0.0044999798 30
-2.5435407 1.4194402 -0.034062989 129
-18.541529 9.4673634 -0.46880752 21
-16.811829 7.850204 -0.56721032 66
-1.767978 1.0736799 -0.079787686 19
-14.369779 8.0277071 -0.78919518 27
-13.014821 6.6666145 -0.83982253 88
-11.674435 5.4550452 -0.864474 50
-1.8108251 1.100566 -0.15903392 21
-9.4789209 5.3025846 -0.91796517 131
-8.8170071 4.5184946 -0.93059283 112
-8.2033091 3.8369508 -0.94051003 51
-1.8491557 1.1250559 -0.24198604 18
-6.9032197 3.8658304 -0.96011442 122
-6.6264338 3.4009933 -0.97661304 204
-6.5608997 3.0694411 -1.020959 108
-1.7626257 1.0743495 -0.30739748 29
-2.1133518 1.184697 -0.38398746 107
-5.6146088 2.884402 -1.0626397 116
-0 0 -0 13
-1.9482175 1.1892437 -0.42641798 21
-2.2546811 1.2655268 -0.50801748 45
-2.7272279 1.4016048 -0.63316107 245
-2.5853493 1.2104059 -0.61897391 57
-1.7916957 1.0959749 -0.47336558 20
-2.3487866 1.3203424 -0.63381535 43
-2.5762904 1.3246588 -0.71154529 209
-2.6126544 1.222856 -0.73969233 56
-1.8006287 1.1036861 -0.56021351 17
-2.1692955 1.2207893 -0.68597001 11
-3.026274 1.5574975 -0.97338039 304
-2.7192822 1.2719532 -0.89278519 32
-18.48218 11.487646 6.537003 98
-18.44931 10.52933 6.1397681 75
-18.9779 9.9104958 5.9567771 74
-18.803036 8.9440775 5.581543 83
-18.794025 11.675564 5.7405658 64
-20.38892 11.642431 5.8391271 17
-18.906445 9.8836823 5.0907464 116
-18.823839 8.9813843 4.7645655 107
-2.1867046 1.3586229 0.56653661 114
-18.918827 10.809551 4.5686693 128
-18.986593 9.9454222 4.2809243 140
-18.817522 8.9961166 3.9602697 138
-2.0272639 1.259953 0.43381587 74
-18.892639 10.800712 3.7335403 110
-18.984037 9.9512615 3.4688818 138
-18.838285 9.0246315 3.1795855 118
-18.838409 11.705872 3.2015913 124
-18.882612 10.804165 2.9263232 113
-19.020885 9.9866648 2.6823466 115
-18.806862 9.0192661 2.4055758 122
-2.1751847 1.3523601 0.27471977 65
-0 0 0 10
-15.741888 8.2727823 1.5645952 157
-18.858137 9.0584345 1.6387963 123
-1.8361008 1.1426109 0.15296835 44
-2.1276946 1.2195349 0.14999627 190
-2.4581487 1.2925894 0.14380132 79
-2.5597243 1.2313138 0.11969697 77
-1.817216 1.1316071 0.073185496 104
-2.0524075 1.1776677 0.058409162 13
-2.2648463 1.1927102 0.038915157 21
-16.366333 7.8826094 0.10589628 41
-1.7727631 1.1050851 -0.0043022684 144
-2.369848 1.3609143 -0.03195817 91
-2.2861841 1.2029278 -0.058173195 16
-16.422497 7.9153109 -0.55731016 45
-1.8665611 1.1651398 -0.084875591 41
-1.9562078 1.124557 -0.10818569 19
-12.900248 6.8090477 -0.83775842 37
-11.822299 5.7019234 -0.88053858 120
-1.7362905 1.0846651 -0.1536455 36
-9.5374937 5.4900904 -0.93009245 47
-8.8242836 4.6598268 -0.93732613 29
-8.177104 3.9477077 -0.94298917 109
-1.7644308 1.1034006 -0.23265323 26
-6.7830086 3.9086187 -0.94999522 75
-0 0 -0 14
-6.597641 3.1858912 -1.032683 317
-1.779484 1.1148027 -0.31269997 29
-2.1499875 1.2401515 -0.39337972 204
-2.2424974 1.1870469 -0.42714763 16
-5.329639 2.5757742 -1.0566499 48
-1.6536974 1.0375283 -0.36471412 14
-2.1676056 1.2518777 -0.4918226 152
-0 0 -0 25
-2.7075715 1.3083738 -0.652031 350
-0 0 -0 14
-2.2312913 1.2905807 -0.60633785 211
-2.4465659 1.2961622 -0.6800589 41
-2.5555851 1.2345997 -0.72776979 259
-1.8360187 1.1566111 -0.57559693 17
-2.8649712 1.658904 -0.91232425 55
-2.6195993 1.3891218 -0.84799582 35
-2.8899145 1.3952429 -0.95435655 118
-3.8694251 2.4713902 1.3792092 42
-18.438007 10.824978 6.1797519 72
-18.844671 10.13716 5.9535604 83
-18.806318 9.2303228 5.6157203 93
-2.0935421 1.3364705 0.64442611 166
-18.838762 11.06601 5.4336658 97
-18.937887 10.197961 5.1325254 90
-18.838156 9.2737083 4.7966347 114
-2.1303554 1.3601283 0.55622029 134
-18.89613 11.106363 4.5957575 119
-18.956326 10.227958 4.3020773 112
-18.822014 9.2837257 3.9848931 127
-2.1012037 1.3419293 0.45312837 200
-18.860622 11.091695 3.7538309 79
-18.94388 10.2285 3.4842188 156
-18.821838 9.302434 3.1958377 123
-2.2064302 1.4088609 0.37789324 186
-18.902348 11.125559 2.9503193 134
-18.980694 10.264642 2.6942403 99
-18.844353 9.3233852 2.4248242 122
-2.1182063 1.3532563 0.26960075 216
-2.2268624 1.3122065 0.25220481 100
-15.765333 8.5336208 1.5772157 128
-15.904915 7.8815198 1.3904583 116
-1.7916873 1.1457107 0.15042828 23
-2.1435223 1.263803 0.15219401 173
-2.3261874 1.2598776 0.1369758 190
-2.5229421 1.251974 0.11868653 251
-1.8334985 1.1732138 0.074415505 20
-1.9138285 1.1295931 0.054855749 24
-2.2183983 1.2032515 0.038367912 29
-17.944817 8.9157915 0.11680885 64
-2.0420017 1.307987 -0.0049942564 17
-2.4252889 1.4326127 -0.032940421 178
-18.377436 9.9595566 -0.4706986 36
-2.351197 1.1689991 -0.080270506 35
-0 0 -0 7
-2.1382921 1.2643936 -0.11910483 177
-12.668361 6.886735 -0.82812572 76
-11.654961 5.7985725 -0.87330949 46
-1.9443944 1.2480992 -0.17340311 39
-9.3459349 5.5336123 -0.91796517 193
-8.7769318 4.7734714 -0.93844837 151
-2.3906012 1.1905165 -0.27734974 17
-2.1320114 1.369949 -0.28331697 62
-2.000035 1.1854221 -0.28213146 98
-6.5932174 3.5910451 -0.9844135 185
-2.2823319 1.1368473 -0.35939431 24
-1.955294 1.2586163 -0.34628242 69
-2.1346068 1.2664418 -0.39337972 148
-5.3966722 2.9420252 -1.0347497 312
-2.3585153 1.175771 -0.47042266 21
-1.9481885 1.2558708 -0.43302912 82
-2.0002279 1.1881797 -0.45711929 89
-2.3824844 1.2993098 -0.56036073 159
-2.6388326 1.3153428 -0.63931674 57
-2.0199256 1.3047615 -0.54196292 101
-2.0646999 1.228282 -0.56512153 55
-3.1568053 1.7223792 -0.8832894 185
-2.4674163 1.2295766 -0.70690542 82
-1.9677466 1.2735893 -0.62174726 59
-2.6654842 1.5873873 -0.85493869 12
-2.7339921 1.4930514 -0.89089054 71
-2.6254718 1.3075391 -0.8722614 32
-3.8195882 2.506079 1.3723046 64
-18.461685 11.145757 6.2330642 73
-18.880667 10.457273 6.0050254 85
-18.950172 9.5912647 5.6933961 92
-2.2129674 1.4512371 0.68661767 128
-2.124836 1.2834717 0.61736327 29
-2.1922293 1.2154413 0.59813315 108
-18.931566 9.6100893 4.8500843 99
-2.1135042 1.3861686 0.55622029 148
-18.848877 11.392086 4.6179204 63
-18.952829 10.528384 4.3302817 116
-18.969379 9.6476126 4.0408554 137
-3.7825134 2.481565 0.82221156 89
-2.1860473 1.321956 0.43828511 149
-18.961884 10.540778 3.5110586 134
-19.023365 9.6942997 3.2500119 125
-3.8673272 2.5367253 0.6676352 190
-18.886492 11.430577 2.9695163 119
-18.915724 10.531547 2.703161 103
-18.962143 9.6731091 2.4550714 128
-2.0814898 1.366055 0.26704127 125
-2.2514501 1.3641914 0.25686628 186
-2.0953488 1.1676637 0.21104331 71
-2.7139566 1.3866134 0.23873246 154
-2.1276553 1.3976282 0.18006235 176
-2.1073675 1.2775934 0.15072885 106
-2.2163503 1.2358032 0.13139127 130
-15.881313 8.1252613 0.75173748 67
-2.0895526 1.3734869 0.085485578 79
-1.910078 1.1592177 0.055151869 30
-2.0568006 1.1484884 0.035814106 16
-2.6041746 1.3339643 0.017056728 160
-2.2162635 1.4582714 -0.0054638195 253
-1.8126951 1.1009825 -0.024801785 41
-16.849962 9.4010668 -0.43449795 61
-16.938444 8.6825342 -0.58187717 51
-2.0777192 1.3689306 -0.095976487 177
-1.907537 1.1597722 -0.10703631 15
-12.572441 7.0358257 -0.82743764 93
-11.550965 5.924767 -0.8708998 178
-1.9788826 1.3048016 -0.17789347 158
-1.8418468 1.1212864 -0.18224555 19
-8.6238689 4.828289 -0.92834842 119
-8.0777597 4.1471949 -0.94298917 126
-2.08518 1.3763005 -0.2793172 173
-1.8429222 1.1230876 -0.26189318 14
-6.6109228 3.7065966 -0.993774 39
-6.401195 3.2871373 -1.0142597 273
-2.0387082 1.3479784 -0.36395743 198
-1.8659518 1.1382388 -0.34641838 25
-2.1920512 1.2301406 -0.42316332 48
