# .PCD v0.7 - Point Cloud Data file format
VERSION 0.7
FIELDS x y z intensity
SIZE 4 4 4 4
TYPE F F F F
COUNT 1 1 1 1
WIDTH 1367
HEIGHT 1
VIEWPOINT 0 0 0 1 0 0 0
POINTS 1367
DATA ascii
0.85803527 2.0586004 0.59784675 163
1.0082502 1.8161179 0.53894717 148
1.0393394 2.0473547 0.57102484 102
0.95300782 2.0637629 0.54242808 177
1.2720715 3.0417862 0.75319064 422
1.5227631 2.7425497 0.69033217 216
1.0864227 2.1387148 0.50297844 89
1.0794599 2.3325691 0.51335055 126
1.0716354 2.5569835 0.52641922 227
1.7895601 3.2220001 0.6698575 352
1.5702068 3.0892148 0.59452569 272
1.1371208 2.4552553 0.43790379 200
1.1612087 2.764483 0.45641926 200
1.6687595 3.0051234 0.49619022 366
0.91271716 1.7940458 0.27075592 259
0.90287966 1.9460993 0.26786298 160
0.84876388 2.0182791 0.25251901 229
0.9890185 1.7800122 0.21841073 290
0.90213668 1.7710301 0.19393647 243
0.8391664 1.8069518 0.17528513 159
0.80699468 1.9155867 0.16282538 145
1.0511414 1.8899543 0.15296835 179
0.96136886 1.8861721 0.12948395 155
0.85729563 1.8448088 0.1053302 117
0.82458049 1.9542792 0.089383289 164
1.1052334 1.9858246 0.077695526 132
1.1900487 2.3321168 0.064627632 154
1.5054489 3.2343943 0.054237999 322
1.2461919 2.9494851 0.018665632 258
1.3847328 2.4852576 -0.0058592409 286
1.3248577 2.5940628 -0.034062989 495
0.95777559 2.0596199 -0.051149186 166
0.85912699 2.0317976 -0.067437001 236
1.1188906 2.0052538 -0.088575892 246
1.0381292 2.030375 -0.10933506 214
1.0667431 2.2862186 -0.1448919 193
0.92967504 2.197037 -0.16004315 147
1.1031812 1.9754788 -0.16981082 150
1.1298941 2.2067125 -0.20953187 173
1.0524638 2.2544856 -0.23370029 131
1.0230603 2.4151437 -0.27239153 177
1.2308149 2.2015958 -0.2819837 165
1.0659817 2.0795634 -0.28357708 239
1.0381571 2.2202997 -0.32137746 82
2.380841 5.6190987 -0.8601737 109
1.072546 1.9148844 -0.32683995 268
1.0087088 1.9657193 -0.35017526 242
1.0053544 2.1479948 -0.39925772 100
1.0058708 2.3717978 -0.45987901 172
1.0647885 1.8980807 -0.40658459 162
1.0417625 2.0274312 -0.44786513 172
1.0311654 2.2022402 -0.50212038 109
1.0228609 2.4122109 -0.56811672 196
4.2591262 7.5758419 -1.9587616 242
1.4575003 2.8320212 -0.74922103 174
3.3003683 7.045012 -1.9108917 237
1.0169815 2.3990445 -0.66815722 178
3.5588109 6.3167419 -1.9231859 301
1.4421457 2.7989438 -0.86769104 227
2.6794717 5.7139254 -1.8048782 239
0.82104748 1.9381568 -0.62597579 196
0.99526137 1.7410817 0.60243303 230
0.95439869 1.8252277 0.5953176 136
0.90424669 1.8987981 0.58514351 127
0.90159374 2.0904887 0.61027491 229
0.99012589 1.7330104 0.51785135 167
1.0319949 1.9725357 0.55364794 146
1.0586323 2.2204907 0.58699208 164
1.2349724 2.8541603 0.7104311 244
1.2772157 2.23523 0.56653661 112
1.4612056 2.7911415 0.66058242 173
1.0775654 2.2554388 0.49924859 109
1.0654128 2.4571097 0.5085113 157
1.9051303 3.3330503 0.69775331 470
1.5476294 2.954468 0.5722056 197
1.2489219 2.6121099 0.4685778 256
1.1052104 2.5432971 0.4221088 225
1.5581882 2.7266228 0.453329 238
0.96779847 1.8459083 0.28035435 294
0.88554496 1.8489581 0.25596893 158
0.87346739 2.0077114 0.25251901 276
1.0048649 1.7573835 0.21713097 291
0.92380202 1.7598261 0.19393647 273
0.87161273 1.8180763 0.17738856 182
0.74440986 1.7081311 0.14595713 122
1.098039 1.9184681 0.15635508 202
1.1793818 2.2453678 0.15512435 145
0.89541972 1.8665645 0.1071917 111
1.0403422 2.3835452 0.10959242 200
1.183164 2.0657744 0.081385553 155
1.1013262 2.0943635 0.058409162 170
1.5606154 3.2481217 0.054785244 341
1.0564297 2.417181 0.01537787 262
1.4628779 2.5513592 -0.0060569518 288
1.3510026 2.5669909 -0.033922669 356
1.180266 2.4586959 -0.061415046 135
0.8695761 1.9881343 -0.066336989 253
1.1135598 1.9393783 -0.08626321 177
1.0741413 2.0386915 -0.11048446 236
0.98554963 2.0462899 -0.13044284 183
0.99497277 2.2732108 -0.16646898 189
1.1213783 1.9514172 -0.16891275 145
1.9045886 3.6098154 -0.34495279 155
1.121541 2.3275046 -0.24267796 87
1.0430408 2.3805425 -0.26991242 244
1.6561719 2.8789213 -0.3713119 187
1.1081121 2.0979259 -0.28791386 136
1.2773563 2.6467283 -0.38534093 109
1.0425677 2.3788984 -0.36609372 182
1.0900369 1.891295 -0.32507244 261
1.0272154 1.9427155 -0.34829685 266
0.9698683 2.0076325 -0.37535205 115
1.0396461 2.3700938 -0.46198776 219
1.0997947 1.9053036 -0.41099203 152
1.050035 1.9832755 -0.44092447 125
1.0274303 2.1259334 -0.4875603 89
1.0382541 2.3672574 -0.56048816 232
1.1337372 1.9599165 -0.5103026 140
1.519506 2.8655226 -0.76295984 458
3.3764272 6.9829974 -1.9051669 212
1.0276741 2.3438017 -0.65623474 187
1.8677157 3.2220111 -0.98787302 302
1.4980826 2.821908 -0.88044333 353
2.8147306 5.8156195 -1.847773 409
0.8493861 1.9384706 -0.62939644 179
1.0165522 1.7287372 0.60243303 215
0.97672516 1.8133783 0.5953176 166
0.90198791 1.8356789 0.5690608 129
0.94606125 2.1216114 0.62270314 193
1.0289744 1.7507713 0.52689236 143
0.98430318 1.8264549 0.51599789 135
1.3279493 2.6995966 0.71789902 192
1.0644903 2.3796005 0.59551495 323
1.0848149 1.8455611 0.47111088 157
1.4117303 2.6179395 0.62364399 250
1.2248266 2.4848094 0.5533061 88
1.0617284 2.3685448 0.49284184 222
1.6287217 2.7700071 0.58402419 265
1.6511631 3.060158 0.59655476 215
1.5271893 3.0958967 0.5586828 348
0.90785468 2.0209289 0.3372356 220
1.2905794 2.1953588 0.36760655 276
0.98472649 1.8234284 0.27875459 237
0.91344279 1.8486273 0.25745571 135
0.91270781 2.0294578 0.25664365 211
1.0142566 1.7243512 0.21457148 281
0.97373068 1.8008866 0.19976331 223
0.93095446 1.8822473 0.18475053 227
0.7849701 1.742498 0.14970563 168
1.0911335 1.8532737 0.15212165 156
1.161252 2.1464481 0.14926369 178
0.90762675 1.8339546 0.10595069 139
0.95611149 2.1192408 0.09797217 108
1.1658106 1.9787687 0.07851553 160
1.9667964 3.6313195 0.10193842 142
1.0888114 2.1966805 0.037273422 106
1.0810727 2.3930993 0.015307918 265
1.4818844 2.512543 -0.0060075237 254
1.3938385 2.571317 -0.034203313 295
1.4446102 2.9170644 -0.073301822 242
0.90379012 1.9991724 -0.067070335 251
1.143373 1.9358917 -0.086725742 168
1.1047952 2.0358915 -0.11105914 250
1.0265783 2.0662286 -0.132507 221
0.9931832 2.1953776 -0.16164961 203
1.1330627 1.9169064 -0.1671166 235
1.1608723 2.1362934 -0.20548946 139
1.1021568 2.2172794 -0.23257808 83
1.0278602 2.2697079 -0.25875646 195
1.7521076 2.9610155 -0.38464445 215
1.5550249 2.8585391 -0.39488772 428
1.2355033 2.4817367 -0.36349976 138
1.0226535 2.2576861 -0.34934524 168
1.0950063 1.8471463 -0.31976995 203
1.0169688 1.8675109 -0.33702612 208
0.94693148 1.9002577 -0.3574228 148
1.0393856 2.2926023 -0.4493354 149
1.1110489 1.8713778 -0.40658459 130
1.0742937 1.9702407 -0.44092447 159
1.0272255 2.0605772 -0.47542691 83
1.0527003 2.3222942 -0.5528596 134
1.911881 3.2134714 -0.84273583 259
1.5097668 2.7646432 -0.74097776 116
3.5086763 7.034894 -1.9309283 278
1.0563588 2.3310142 -0.65623474 136
2.0615442 3.4578781 -1.0678668 200
3.3029034 6.0414157 -1.8974431 246
2.8910389 5.7909632 -1.8510725 375
0.86361974 1.9069457 -0.62255514 210
1.0257967 1.6964633 0.59552836 285
1.0100864 1.8214194 0.60198164 159
0.9401226 1.8554097 0.57871044 159
0.96717542 2.0993147 0.61959606 202
1.0563896 1.7479534 0.52990609 187
1.0405425 1.8753353 0.53337485 89
1.2712137 2.5061326 0.67054975 217
1.1377814 2.4619331 0.61956722 166
1.3377486 2.2132423 0.5691157 114
1.4323484 2.5798819 0.61871886 283
1.4151849 2.7843008 0.62381595 247
1.1105303 2.3981292 0.50179577 164
1.778657 2.9417763 0.62479496 213
1.7747443 3.1947503 0.62699121 314
1.5543245 3.0558057 0.55484849 279
0.90262359 1.9450694 0.32640073 204
1.3235669 2.1895201 0.36932096 275
1.0070286 1.8112069 0.27875459 200
0.9252485 1.8160591 0.25448221 197
0.89234078 1.9208033 0.24426977 184
1.0476906 1.7321936 0.21713097 303
0.99575704 1.7888019 0.19976331 224
0.915968 1.7961383 0.17738856 168
0.8416248 1.8086599 0.15626551 193
1.1075945 1.8295045 0.15127495 210
1.0592834 1.9018285 0.13314687 125
0.96819246 1.8974004 0.11029422 132
0.88076049 1.8900026 0.087867603 147
1.2148619 2.0053434 0.080155544 164
1.3218194 2.3705549 0.066996567 121
1.3122506 2.5677874 0.043840356 98
1.6380532 3.5105767 0.022582967 277
1.2761475 2.1042681 -0.0050683981 203
1.4252876 2.5540187 -0.034203313 328
1.4039193 2.7495313 -0.069519669 156
0.93840444 2.0096669 -0.067803673 275
1.1794919 1.9422134 -0.087650821 170
1.1355413 2.032645 -0.11163384 199
1.0573187 2.0641382 -0.13319504 268
1.0605977 2.2698028 -0.16807543 203
1.1751456 1.9335352 -0.16981082 199
1.116948 1.9966607 -0.19336221 210
1.031203 2.012202 -0.21237829 152
1.101148 2.354228 -0.26991242 117
1.7821132 2.9291031 -0.38331118 220
1.5725248 2.8080599 -0.39055091 276
1.0920123 2.1276569 -0.31357703 122
1.02007 2.1803894 -0.33929619 200
1.1361233 1.8639745 -0.32507244 277
1.057196 1.885906 -0.34266147 245
0.97558671 1.8990201 -0.35941494 150
1.0423936 2.2261822 -0.43879175 145
1.1093463 1.8173295 -0.39776978 153
1.0638108 1.8953011 -0.42704314 136
1.0255754 1.995554 -0.46329352 108
3.8558118 8.2357664 -1.971774 234
2.2443814 3.6691067 -0.9693771 156
4.0735998 7.2466173 -1.9554852 264
1.4685372 2.8561153 -0.78883016 121
3.1593869 6.7500882 -1.9110788 252
2.2674813 3.6993237 -1.1509374 114
3.3824658 6.0105114 -1.9006312 256
1.4571842 2.8313613 -0.91068816 286
0.88695586 1.8962042 -0.62255514 88
1.0404707 1.6739866 0.592076 324
1.0209335 1.7888622 0.5953176 139
0.9521175 1.8232378 0.57227731 134
1.0177586 2.1396227 0.63513124 138
1.0838896 1.7447249 0.53291976 174
1.0634774 1.8624251 0.53337485 99
1.2099434 2.3144944 0.62320042 148
1.2233222 2.5639277 0.64896435 194
1.612205 2.5948453 0.67227864 152
1.6153878 2.8272443 0.68274552 159
1.4656268 2.797997 0.63086694 219
1.3483582 2.8204122 0.59357405 251
1.8582488 2.9899216 0.63981581 187
1.8490349 3.2343373 0.63916582 209
1.6357046 3.1204362 0.57018554 305
1.3005822 2.714874 0.45822504 196
1.2813827 2.0621455 0.35046202 216
1.1413994 1.9948421 0.30914962 172
0.94192928 1.7940253 0.25299543 201
0.88491565 1.8452152 0.23602051 212
1.0688684 1.7192063 0.21713097 371
1.0116968 1.7660843 0.19859794 275
0.93237948 1.774181 0.17633685 235
0.86375642 1.7981956 0.15626551 161
1.1362864 1.8259377 0.15212165 208
1.0646734 1.8575114 0.13094912 169
1.0360237 1.9702314 0.11525822 106
1.0701993 2.2247903 0.10403491 81
1.309114 2.1022696 0.084665574 189
1.3448398 2.3437505 0.066700451 282
1.6008407 3.0398483 0.052231435 151
1.4258646 2.960463 0.019155301 246
1.2130017 1.9458815 -0.0047224043 251
1.456522 2.5363359 -0.034203313 369
1.331414 2.5303738 -0.06438674 275
1.239005 2.5706577 -0.087237261 213
1.2032369 1.927593 -0.087650821 148
1.196242 2.0809062 -0.11508199 142
1.0546077 1.9980328 -0.12975478 168
1.093573 2.267401 -0.16887864 205
1.1480647 1.8377783 -0.16262622 175
1.177158 2.0449822 -0.19942583 151
1.0558182 1.9993962 -0.21237829 173
1.1247659 2.3297892 -0.26867288 109
1.7293986 2.7654545 -0.3646456 279
1.6187609 2.8091946 -0.39344212 296
1.3961589 2.6399903 -0.39158127 151
1.0364158 2.1463065 -0.33594647 185
1.1148027 1.779484 -0.31269997 255
1.0743375 1.8625239 -0.340783 181
0.99328095 1.8764465 -0.3574228 192
0.96682554 2.0004983 -0.39661711 141
1.125295 1.7935871 -0.39556605 136
1.1164334 1.9330863 -0.43861088 75
1.0279878 1.9412751 -0.45358679 108
1.0175296 2.1056933 -0.50708812 98
4.6381865 7.3775525 -1.9640384 177
1.8929818 3.2727852 -0.88935655 189
1.5089312 2.848177 -0.79169261 349
3.2520957 6.7317429 -1.9170401 371
2.504359 3.9754505 -1.2463146 144
1.8791894 3.2454097 -1.0334715 290
1.5026299 2.8336523 -0.91728729 385
2.6604631 5.5105181 -1.8197767 255
1.067121 1.670778 0.59552836 242
1.0194623 1.7364335 0.58198965 187
1.0127577 1.8826854 0.59479314 105
1.0286176 2.0957568 0.62581015 78
1.0927182 1.7117113 0.52689236 205
0.99777919 1.6986182 0.48993257 131
1.0500953 1.9500552 0.52850181 148
1.2081914 2.4542608 0.62491214 188
1.3727416 2.1501117 0.56137848 136
1.6797166 2.8578341 0.69505829 72
1.5333788 2.8419385 0.64496887 223
1.5236748 3.0891292 0.65401345 346
1.8312516 2.8673885 0.61835748 258
1.6247834 2.7628264 0.54988551 162
1.7245264 3.1939402 0.58743972 392
1.2654674 2.5604506 0.43474948 162
1.0764868 1.6858962 0.28874186 227
1.2864445 2.185672 0.34114441 228
1.0318453 1.9080198 0.27083644 147
0.89691985 1.8128474 0.23327073 272
1.0770379 1.6858507 0.21457148 236
1.0332931 1.7535362 0.19859794 191
0.94270051 1.7415805 0.17423342 170
0.9016937 1.8196188 0.15907688 130
1.1328132 1.7715181 0.1487349 237
1.0813044 1.8339885 0.13021654 158
1.1286106 2.0838213 0.12270425 150
1.0867614 2.1900103 0.10302445 100
1.2766376 1.9951291 0.080975547 143
1.3308163 2.2547536 0.064627632 156
1.5579342 2.8723159 0.049677629 160
1.3019067 2.6203482 0.017056728 307
1.2303168 1.9207447 -0.0046976903 253
1.402099 2.373632 -0.032238815 257
1.4195275 2.6193209 -0.067088284 198
1.393276 2.802283 -0.095670708 226
1.2332747 1.9227755 -0.088113353 173
1.1850829 2.0041652 -0.11163384 153
1.0904911 2.0059919 -0.13113089 198
1.0413165 2.0930154 -0.15683025 136
1.1899228 1.8537621 -0.16532044 267
1.147336 1.9377807 -0.19033039 114
1.0745661 1.9757935 -0.21125609 222
1.0734601 2.1555474 -0.2500796 227
1.6536089 2.573463 -0.34198025 213
1.6166688 2.7276313 -0.38476858 230
1.3317028 2.4450283 -0.36505982 117
1.0626762 2.1334264 -0.33594647 205
1.1429799 1.7756498 -0.31446743 254
1.0547804 1.7778482 -0.32763383 179
1.0332253 1.8952857 -0.36339921 128
0.94913751 1.9039042 -0.37974724 123
1.166394 1.8093864 -0.40217718 184
1.1340576 1.9091167 -0.43629733 175
1.4174715 2.5991521 -0.61132097 79
1.1950132 2.397428 -0.58083099 161
2.0796785 3.2195892 -0.86384267 240
1.9568901 3.2894652 -0.90034753 346
1.5214428 2.7885256 -0.78024298 75
3.3240907 6.6705203 -1.9110788 262
2.244143 3.4672911 -1.0955571 145
2.0431817 3.4308376 -1.1004213 136
3.1188185 5.7110057 -1.8609713 288
2.7535233 5.528935 -1.8368798 199
1.1379805 1.7344292 0.62314707 256
1.0168616 1.6843162 0.56866157 163
0.98537254 1.779096 0.56584424 84
1.3159692 2.6000578 0.78116226 136
1.1391202 1.7370255 0.53894717 170
1.0546745 1.7460535 0.50730944 126
1.028668 1.8553556 0.50621974 132
1.1323119 2.230618 0.57146281 197
1.4247328 2.1723034 0.57169473 147
1.6599854 2.7465436 0.67289519 166
1.6138538 2.9052031 0.66377151 201
1.4385463 2.828506 0.6025281 325
2.0735478 3.1605954 0.68702412 243
1.7381275 2.8742476 0.57626379 145
1.8441685 3.3174884 0.61427951 240
0.99515039 1.9528081 0.33362395 222
1.0384668 1.5831794 0.27331182 196
1.1284328 1.8644847 0.29315224 179
1.055182 1.8952137 0.27083644 213
0.9245159 1.8123235 0.23464562 246
1.1238312 1.7124077 0.2196905 313
1.0609231 1.7509388 0.19976331 205
0.99309599 1.7820907 0.17949198 135
0.94028443 1.8403769 0.16188826 114
1.1807549 1.7975019 0.15212165 208
1.1534045 1.9025201 0.1360772 207
1.0432106 1.8709451 0.11091472 104
0.99887693 1.9523653 0.092414655 104
1.2614999 1.9191816 0.07851553 176
1.2588015 2.0741651 0.059889745 178
1.3883255 2.4863191 0.043293111 128
1.344906 2.6255348 0.017196633 289
1.2933708 1.9656496 -0.0048459736 214
1.1757309 1.9357636 -0.026485642 301
1.1183859 2.0045342 -0.051689494 162
1.1211653 2.1872413 -0.075137109 247
1.2501801 1.8974836 -0.087650821 183
1.2344958 2.0304387 -0.11393261 84
1.0740714 1.9192771 -0.12631454 208
1.0505294 2.0481191 -0.15442055 202
1.2191689 1.8490106 -0.16621853 219
1.991786 3.2717464 -0.32373011 157
1.0812216 1.9311838 -0.20788945 133
1.0889282 2.120976 -0.2476005 195
2.7361772 4.1454768 -0.55530125 103
1.5880274 2.6058617 -0.37031263 236
1.2219549 2.179425 -0.32761779 198
1.0779206 2.0990846 -0.33259678 193
1.1581377 1.7515894 -0.31269997 330
1.0826899 1.7748885 -0.32951227 204
1.0448233 1.8618246 -0.35941494 159
0.98862952 1.9236341 -0.38607344 135
1.253634 1.8932894 -0.4242143 136
1.1267134 1.8448119 -0.42472959 208
1.1040843 1.9667009 -0.46572024 85
4.118814 8.0152483 -1.953974 101
2.1060874 3.1743166 -0.85856599 164
2.3262365 3.8033144 -1.0487263 228
3.866756 6.8847404 -1.9395157 234
1.4562967 2.8346965 -0.81718862 132
2.1773605 3.2752841 -1.0432534 262
2.2542756 3.6817617 -1.1896877 139
3.1660519 5.6320739 -1.847773 336
1.4552376 2.8343387 -0.94751525 234
1.1977111 1.7775195 0.64386111 251
1.0617695 1.7108917 0.58198965 136
0.99568051 1.7467824 0.55941117 109
1.0100509 1.9362861 0.58541858 124
1.1668388 1.73255 0.54196078 178
1.0883076 1.7527664 0.51310176 138
1.0397893 1.8223165 0.50064927 123
1.0782561 2.0610678 0.53137577 185
1.4905659 2.2129776 0.58716917 175
1.9352813 3.1150339 0.7689352 72
1.5325787 2.6808591 0.61676496 152
1.4567291 2.7793138 0.59581256 363
1.9142635 2.8411667 0.62264913 239
1.7919997 2.8828356 0.58235109 139
1.7612151 3.0786803 0.57401979 335
1.0135237 1.9299462 0.33181816 139
1.1573499 1.7180724 0.29902858 156
1.088405 1.7495145 0.27715483 203
1.0428419 1.8201311 0.26191595 167
0.93004531 1.7691863 0.23052099 170
1.1114178 1.649017 0.21329172 279
1.0507598 1.6870986 0.19393647 211
1.0148902 1.7697697 0.17949198 159
0.99623805 1.8922145 0.167511 102
1.2295009 1.8225698 0.1555084 227
1.1449912 1.8373958 0.1324143 175
1.0303066 1.7956358 0.1071917 154
1.0674914 2.024806 0.096456483 101
1.318506 1.9532577 0.080565542 192
1.5381347 2.4656937 0.071734443 210
1.3469983 2.3442533 0.041104134 179
1.4498429 2.7467916 0.018106014 215
1.4584843 2.1584299 -0.0053649638 351
1.224815 1.9619038 -0.027046928 384
1.1309538 1.9698507 -0.051149186 151
1.3215804 2.5020998 -0.086503923 185
1.3069692 1.931656 -0.089963503 210
1.2593194 2.0151367 -0.11393261 157
1.1154784 1.9370979 -0.12837869 179
1.0364208 1.9609743 -0.14879796 171
1.3424058 1.9825387 -0.17968963 218
1.3657995 2.1827257 -0.21761671 95
1.1406231 1.9798843 -0.21462271 41
1.0646417 2.0124993 -0.23644452 163
1.8233244 2.6900547 -0.36331236 319
1.3353255 2.1318722 -0.30526099 166
1.2248248 2.1230416 -0.32137746 137
1.1202705 2.1172075 -0.33762133 164
1.1528761 1.6979671 -0.30562997 276
1.104389 1.7614686 -0.32951227 150
1.0320878 1.7873764 -0.34746212 122
1.0398033 1.9635565 -0.39661711 126
1.3497317 1.9850636 -0.44845513 153
1.105446 1.7610368 -0.40853474 148
1.116379 1.9326513 -0.46086684 79
1.4784859 2.792315 -0.68508816 189
2.1448827 3.1482327 -0.85856599 222
4.4118342 7.0182281 -1.9499899 217
1.8926275 3.2750242 -0.92908788 192
1.4909731 2.816612 -0.81718862 340
1.7138585 2.5106807 -0.8063485 104
2.0713093 3.2915399 -1.0717286 170
1.8774133 3.2458198 -1.0723683 316
1.5006672 2.8366013 -0.95435655 335
1.1736642 1.696528 0.61969471 278
1.1074791 1.7366126 0.5953176 163
1.0111934 1.7244595 0.55619454 102
1.0172768 1.8931153 0.57609749 142
1.1681936 1.6894393 0.53291976 200
1.1347899 1.7785478 0.52468634 121
1.0502565 1.789287 0.49507877 120
1.0368708 1.924099 0.49930614 96
1.6175992 2.3391073 0.62585533 239
1.4488173 2.2694101 0.56454247 140
1.6130829 2.7429988 0.63556755 210
1.5691359 2.9064651 0.62715149 351
1.9355513 2.7980423 0.61835748 252
1.7890414 2.8008239 0.57017648 173
1.6366495 2.7811844 0.52225739 331
1.0089096 1.8651903 0.3227891 147
1.3742681 1.9870191 0.34874761 229
1.0649523 1.6658839 0.2659567 234
1.0590532 1.7969382 0.26042917 194
0.98006618 1.8100547 0.23739536 152
1.2062538 1.743181 0.227369 245
1.0906978 1.7042558 0.19743256 205
1.0365316 1.7571822 0.17949198 149
0.96235496 1.7746803 0.15813975 98
1.2176967 1.7581429 0.15127495 194
1.1351579 1.7727722 0.12875138 166
1.0461729 1.7725368 0.1065712 209
1.1094218 2.0431628 0.09797217 129
1.4175218 2.0453591 0.085075572 316
1.4711699 2.2951386 0.06729269 222
1.4000845 2.3688643 0.041833792 239
1.7069602 3.139957 0.020834157 327
1.5190622 2.1896679 -0.0054885335 298
1.2358406 1.9265261 -0.026766283 389
1.1062372 1.8731834 -0.048987955 169
1.1515787 2.1169224 -0.073670417 172
1.3100522 1.8859274 -0.088575892 236
1.2580476 1.9591875 -0.11163384 154
1.1757979 1.9851103 -0.132507 124
1.0375103 1.9060439 -0.14558506 208
1.4144458 2.0346944 -0.18597615 176
1.2178829 1.8942375 -0.19033039 174
1.1831053 1.9965731 -0.21798934 50
1.0607061 1.9468771 -0.23024677 226
1.8357631 2.6381102 -0.35931259 382
1.2775755 1.9850997 -0.28646827 218
1.1657807 1.9645993 -0.29953629 138
1.0779376 1.9780937 -0.31752315 183
1.1804132 1.6934288 -0.30739748 180
1.1130847 1.7278563 -0.32575539 168
1.0479013 1.7644022 -0.34546995 106
1.024228 1.8780502 -0.38185599 187
1.5832953 2.2681978 -0.51677012 152
1.2418511 1.9254532 -0.45017865 76
1.1460142 1.9289095 -0.46329352 113
1.5182551 2.7842577 -0.68763101 166
1.7942088 2.565289 -0.70554113 370
2.6153412 4.0492654 -1.1339067 221
1.920766 3.2315171 -0.92336309 222
3.6007447 6.6048846 -1.9289625 88
1.6979443 2.4229689 -0.78481162 223
2.0424519 3.1590083 -1.0366596 154
2.02918 3.4109313 -1.1350605 168
2.9551623 5.4238386 -1.8368798 230
1.1744328 1.6538862 0.60933769 330
1.1160718 1.7036053 0.58865362 208
1.0382489 1.7218212 0.55941117 138
1.0179863 1.8399212 0.56366926 105
1.2022834 1.6939206 0.53894717 218
1.15653 1.7644882 0.52468634 193
1.0902299 1.8062432 0.50343454 139
1.0604044 1.9112301 0.49930614 77
1.6054796 2.2617407 0.61038089 222
1.9209738 2.9291077 0.73445934 147
1.6709791 2.7632761 0.64496887 195
1.6562331 2.9797313 0.64729798 265
1.9218938 2.7066927 0.60333663 131
1.9270935 2.9368742 0.60264206 187
1.3026924 2.1528022 0.40722972 266
1.7012596 3.0549603 0.5322634 284
1.4260494 2.0087433 0.35560536 245
1.0592022 1.6129259 0.25955772 248
1.0131392 1.6717886 0.24407494 190
0.990596 1.7770665 0.23464562 184
1.2413731 1.747702 0.22992849 405
1.1246514 1.7107027 0.19976331 157
1.0270202 1.6932266 0.17423342 117
1.0598696 1.898533 0.17032236 97
1.2599872 1.7723355 0.15381502 291
1.183156 1.798736 0.13168171 209
1.1611075 1.9132389 0.11587873 149
1.0525112 1.8828806 0.090898976 120
1.4494668 2.0375826 0.085485578 289
1.3870708 2.1065819 0.062258683 206
1.4165862 2.3309975 0.041468963 185
1.3585904 2.4276519 0.016217299 259
1.3787655 1.9362621 -0.0048954007 262
1.2725936 1.9312545 -0.027046928 390
1.1415944 1.8799759 -0.04952826 195
1.0778415 1.924723 -0.067437001 198
1.3330967 1.869709 -0.088575892 312
1.2819952 1.9436017 -0.11163384 161
1.1938382 1.9602997 -0.13181894 133
1.0783807 1.9245037 -0.14799474 166
1.4045563 1.9684793 -0.18148579 195
1.7945607 2.7172835 -0.27522111 261
1.9845554 3.2572608 -0.35826561 97
1.1195489 1.9961759 -0.23768409 151
1.8818612 2.634793 -0.3619791 365
1.3018396 1.9692724 -0.28646827 231
1.1154389 1.8282613 -0.28081524 167
1.1602651 2.0683503 -0.33427164 157
1.5395098 2.1518123 -0.39400491 185
1.1538253 1.7437192 -0.33139074 243
1.1188109 1.8322053 -0.36140707 130
1.0529804 1.875641 -0.38396475 183
1.7621499 2.4595532 -0.56525177 341
1.9286975 2.9113214 -0.68616098 97
2.0272703 3.3187592 -0.80302864 62
4.4856677 7.9911599 -1.9870312 108
2.0917923 2.9139605 -0.80843717 127
3.0200031 4.5522323 -1.2850332 273
2.3248854 3.8043303 -1.0951071 167
3.7213466 6.6311584 -1.949827 297
1.6462801 2.288954 -0.74789137 143
1.997864 3.0084224 -0.99521452 179
2.2514851 3.6810443 -1.2340484 187
3.015872 5.3771338 -1.8334591 240
1.2081771 1.6579258 0.61624241 282
1.1755052 1.74717 0.60864562 178
1.1202085 1.8072131 0.59157658 131
1.0003408 1.7567842 0.54192001 120
1.2093027 1.6602616 0.53291976 321
1.1780958 1.750163 0.52468634 111
1.1246208 1.8125648 0.50900501 190
1.0199698 1.7863225 0.46990898 143
1.6262132 2.2323959 0.6078018 207
1.5762444 2.3403239 0.5916307 218
2.0091665 3.232276 0.76013494 165
1.7804786 3.1126847 0.68087536 264
1.9688705 2.7019885 0.60762835 181
1.4077998 2.0891247 0.43219787 168
1.3227559 2.1265955 0.40531263 141
1.7091274 2.9823883 0.52323431 309
1.4435989 1.9814928 0.35389096 301
1.1321131 1.6786873 0.27235562 172
1.0335784 1.6592299 0.24407494 213
1.0063971 1.754436 0.23327073 198
1.2556984 1.7226949 0.22864874 386
1.1990228 1.7759608 0.20908624 194
1.06037 1.7007837 0.17633685 122
1.059251 1.84389 0.16657388 76
1.8530893 2.5400207 0.22239678 303
1.2185491 1.8039321 0.13314687 205
1.1591276 1.8581748 0.11339672 174
1.027714 1.7866812 0.086857148 181
1.4814333 2.0293286 0.085895583 272
1.3389006 1.9800872 0.059001394 206
1.470511 2.3541439 0.042198621 142
1.4481618 2.5147855 0.016916823 176
1.5015421 2.0548406 -0.0052413945 420
1.3096467 1.9353677 -0.027327569 467
1.170931 1.8760026 -0.049798418 189
1.0894028 1.8905665 -0.066703662 230
1.3984243 1.9112731 -0.091351114 275
1.3124716 1.9376473 -0.11220853 223
1.1860217 1.8947277 -0.12837869 228
1.1138772 1.9318703 -0.14960119 211
1.4427454 1.9704047 -0.18328193 257
1.3244067 1.9528441 -0.19942583 116
2.0053544 3.2022846 -0.35489899 90
2.2416859 3.8844554 -0.46576163 53
2.0057015 2.7365458 -0.37931144 311
1.3259075 1.9531486 -0.28646827 204
1.1504326 1.8345957 -0.2839354 194
1.132098 1.9613354 -0.31919801 148
1.572824 2.1423254 -0.39577237 259
1.1884588 1.7490349 -0.33514765 241
1.122339 1.7882688 -0.35543063 160
1.1054627 1.9137243 -0.39450839 112
1.848097 2.5137749 -0.58288151 360
2.0503778 3.0139976 -0.71623713 266
2.0865903 3.3234906 -0.81030864 78
1.9145945 3.3148556 -0.83003104 150
2.1482217 2.9163473 -0.81635219 94
2.1088841 3.0956993 -0.88111329 134
4.2309079 6.7360563 -1.9538275 146
1.8842669 3.2631361 -0.96621996 209
1.5778196 2.137924 -0.70481777 191
1.6891896 2.4771066 -0.82624584 214
2.1184177 3.3698733 -1.1383601 165
1.868526 3.2377031 -1.1117057 284
1.2559593 1.679792 0.63005173 290
1.1837529 1.713643 0.60198164 204
1.1174576 1.7543273 0.57871044 103
1.0393995 1.7743797 0.55124116 141
1.2295855 1.6452966 0.53291976 273
1.2392097 1.7930541 0.5420633 142
1.1405039 1.7887855 0.50621974 133
1.0536638 1.7938457 0.47525391 146
1.7096153 2.28737 0.62843436 146
1.6582842 2.3980844 0.61133116 211
1.6179346 2.5330095 0.60031265 111
1.6272215 2.7654531 0.60924357 226
2.1220634 2.838376 0.64410746 233
1.4669769 2.1203227 0.44234335 178
1.8272226 2.8587971 0.54909718 143
1.341956 2.2764628 0.40224484 159
1.4535842 1.9446024 0.35046202 226
1.1797088 1.7037795 0.27875459 157
1.0602813 1.6564503 0.24556169 226
1.0157349 1.72142 0.23052099 177
1.2624521 1.6880459 0.22608924 305
1.2207264 1.7611132 0.20908624 226
1.1069546 1.7279052 0.18054371 152
1.0635403 1.7998537 0.16376249 93
1.9128119 2.5554204 0.22578351 322
1.3498077 1.9463201 0.1448682 181
1.201244 1.8740784 0.11525822 138
1.049562 1.773935 0.086857148 197
1.534983 2.0493922 0.08753559 323
1.3767809 1.9832169 0.059593633 221
1.5965054 2.4873857 0.044934843 138
1.5889906 2.682667 0.018175965 103
1.5554384 2.0746644 -0.0053402502 423
1.3127594 1.8895873 -0.026906606 361
1.2197708 1.9018861 -0.050879031 173
1.1430987 1.9286464 -0.068537019 207
1.385779 1.8460199 -0.089038432 242
1.342994 1.9312359 -0.11278322 295
1.2156643 1.8901068 -0.12906674 249
1.1436077 1.9283541 -0.15040442 130
1.4668168 1.9525516 -0.18328193 394
1.4439257 2.0738275 -0.21357428 201
1.5790331 2.4540346 -0.27409986 76
1.9845698 3.3434598 -0.40378404 90
1.8957835 2.5210955 -0.35264632 337
1.7380208 2.4938054 -0.36886704 249
1.1728593 1.82034 -0.2839354 196
1.1257511 1.8962072 -0.31082374 184
1.8703543 2.4831257 -0.46293733 481
1.2572993 1.8023633 -0.34829685 206
1.1185471 1.7345814 -0.34746212 153
1.1228298 1.8898585 -0.39239964 143
1.9001153 2.5191588 -0.58949256 429
1.7164 2.4576585 -0.58899176 185
2.1399586 3.3173859 -0.815162 92
1.2183992 2.0509579 -0.5172596 104
2.3250072 3.0765536 -0.86911935 203
1.7785147 2.5430984 -0.72998679 281
2.6134377 4.0496712 -1.1838416 202
1.941976 3.2697501 -0.97516185 208
1.5689287 2.0721643 -0.68943435 164
1.6929219 2.418282 -0.81349349 261
2.4037416 3.7215979 -1.2670443 131
2.0196683 3.4024563 -1.1766977 186
1.2554951 1.6368954 0.61969471 265
1.2046928 1.6989875 0.60198164 237
1.1199113 1.7114608 0.5690608 118
1.0610957 1.7614912 0.55124116 173
1.3274204 1.7314838 0.56607032 164
1.2004783 1.6922299 0.51599789 136
1.1815555 1.8039478 0.51457554 105
1.1058395 1.8308493 0.48861626 132
1.9586134 2.5545335 0.70838571 302
1.6943855 2.3871315 0.61379373 246
1.9458596 2.965544 0.70842767 146
1.7281684 2.8562305 0.63386697 216
1.6609613 2.1656926 0.49604502 246
1.4449493 2.0346603 0.42813963 254
1.8426621 2.8064523 0.54334581 178
1.3144456 2.1685174 0.38599253 221
1.4773381 1.9266182 0.35046202 264
1.3521011 1.9024416 0.31394884 200
1.0805286 1.6433142 0.24556169 201
1.0244156 1.6884422 0.22777124 246
1.3629613 1.7765588 0.24016649 308
1.2699412 1.7849267 0.21374771 284
1.1740744 1.7840899 0.18790567 143
1.0979712 1.8071151 0.16563675 120
1.9148664 2.4937785 0.22239678 372
1.4361054 2.0174298 0.15146144 187
1.1911999 1.8091506 0.11215572 135
1.0774829 1.7711644 0.087362371 148
1.6257786 2.1159921 0.091225617 271
1.4427837 2.024791 0.061370339 368
1.5674688 2.3774507 0.043293111 157
1.5219249 2.4989858 0.017056728 192
1.5442027 2.0078599 -0.0052166814 255
1.4682144 2.0589592 -0.029572709 396
1.243018 1.8867744 -0.050879031 217
1.1479549 1.8837465 -0.067437001 229
1.415644 1.8383758 -0.089500964 249
1.3457015 1.885342 -0.11105914 297
1.245371 1.8850421 -0.12975478 241
1.179652 1.9346203 -0.15201087 202
1.4833629 1.9249259 -0.18238385 300
2.1019313 2.9412441 -0.30553925 172
1.2928226 1.95605 -0.22023375 94
1.6959062 2.778872 -0.3380878 219
1.9338623 2.5070844 -0.35397956 243
3.6051378 5.0398531 -0.75194907 209
1.188543 1.7958883 -0.28237534 159
1.0932174 1.7909689 -0.29575014 123
1.7918327 2.319103 -0.43642485 301
1.4656147 2.0469885 -0.3990151 310
1.1332141 1.7108587 -0.34546995 126
1.0966712 1.795288 -0.3755298 106
1.8875766 2.4396746 -0.57627034 253
1.9316489 2.6948056 -0.65145767 205
2.122086 3.2027054 -0.79332191 76
1.9648037 3.2168291 -0.81731671 123
1.4230503 1.8357676 -0.52349436 186
1.979876 2.758323 -0.79868066 126
2.9913099 4.5126777 -1.3298241 234
2.3030252 3.7714622 -1.1331351 141
1.6155827 2.0802372 -0.69866443 170
1.7089698 2.378535 -0.80711734 111
2.0729163 3.1245873 -1.0723683 180
2.2889681 3.7505021 -1.3066818 135
1.4815555 1.8833129 0.71981251 321
1.2458 1.7120403 0.61197758 217
1.1601744 1.7263752 0.57871044 138
1.0704275 1.7286283 0.54502702 127
1.5639564 1.9889872 0.65648079 185
1.2348623 1.6962001 0.52179027 212
1.2622367 1.876478 0.53964281 130
1.1467359 1.8469574 0.49663365 134
1.4899457 1.8946587 0.5304296 167
1.7373816 2.3851452 0.61871886 327
1.8374337 2.7267501 0.65672052 274
1.9685574 3.165174 0.70773727 153
1.6217166 2.06163 0.47673252 317
1.4907066 2.04545 0.43422693 260
1.1550965 1.7130653 0.33437893 178
1.2907698 2.0716729 0.37154603 210
1.515554 1.9270152 0.35389096 365
1.2912477 1.7704018 0.294752 294
1.1339315 1.6792728 0.25299543 185
1.0765994 1.7263197 0.23464562 293
1.3699032 1.7409459 0.237607 260
1.2847067 1.7595623 0.21258233 364
1.1691061 1.7299314 0.18369883 255
1.1137277 1.7833582 0.16469963 178
1.9675429 2.4983041 0.22493684 434
1.4183623 1.9416234 0.14706594 192
1.2065985 1.7844689 0.11153521 133
1.1881272 1.9001276 0.094435565 131
1.748122 2.218338 0.096555658 320
1.5029269 2.0553515 0.062850922 312
1.468714 2.169261 0.039827231 123
1.7180176 2.7445772 0.018875491 190
2.2673137 2.8743966 -0.0075397827 195
1.4862846 2.0311036 -0.02943239 375
1.252633 1.8515056 -0.050338723 228
1.1900858 1.9000126 -0.068537019 280
1.5570097 1.9714278 -0.096901566 271
1.3899844 1.8976955 -0.11278322 325
1.3222176 1.9489298 -0.1352592 187
1.1842291 1.8895625 -0.14960119 277
1.5365529 1.9441305 -0.18597615 245
1.833804 2.5006042 -0.26208329 247
1.8467754 2.7209959 -0.30888838 219
1.7298795 2.7578514 -0.3380878 222
1.9348859 2.4457531 -0.34864655 263
2.1159086 2.8825424 -0.43391871 264
1.3843745 2.0370262 -0.32293755 207
1.0898533 1.737156 -0.28905076 218
1.9012437 2.3992672 -0.45586732 331
1.8344792 2.4968612 -0.49105939 263
1.1740893 1.7261776 -0.35144639 147
1.0872124 1.7316709 -0.36498615 110
1.7853932 2.2500029 -0.53660357 177
2.2506249 3.0597954 -0.74631333 363
2.1480064 3.1569903 -0.78846854 152
1.9916606 3.1726108 -0.812231 167
1.6275966 2.047251 -0.5894534 146
1.5771471 2.1412826 -0.62557209 107
3.1251509 4.5912337 -1.3641729 154
4.0607772 6.470109 -1.9587687 111
1.7277052 2.169127 -0.73558468 82
1.381041 1.8731815 -0.6413368 96
1.7018744 2.4982014 -0.86449373 295
2.5304072 4.0339322 -1.416142 191
1.5189872 1.8828797 0.72671717 335
1.2667155 1.6966234 0.61197758 252
1.1812723 1.7120081 0.57871044 117
1.1475638 1.8033714 0.57299042 176
1.41326 1.7526377 0.5841524 193
1.2695223 1.6995783 0.52758253 143
1.2254708 1.7744076 0.51457554 112
1.269991 1.9905432 0.53939319 119
1.9324311 2.396225 0.67743683 256
1.8087057 2.4200907 0.63349426 173
1.8439758 2.6652873 0.6473192 271
1.6390254 2.5646105 0.57790458 133
2.047189 2.5378003 0.5926075 285
1.5298605 2.0459466 0.43828511 194
1.4255097 2.0591292 0.40531263 279
1.3288883 2.0756593 0.37515765 179
1.5465434 1.9175166 0.35560536 316
1.3841311 1.8496425 0.31074938 208
1.2155117 1.7533041 0.2663762 160
1.0784073 1.6828673 0.23052099 269
1.5859771 1.9654264 0.27088052 273
1.327684 1.7723404 0.21607845 280
1.224319 1.7645608 0.18895738 281
1.1161453 1.739351 0.16188826 169
1.9754901 2.4460342 0.22239678 505
1.8874575 2.5183055 0.19248605 252
1.4197569 2.0451703 0.12890926 167
1.2243167 1.9055783 0.095446028 180
1.7752128 2.1967189 0.096555658 427
1.6072276 2.1423097 0.066108212 271
1.522617 2.1904833 0.040556893 161
1.5763034 2.4507909 0.016986774 213
2.2797756 2.8183672 -0.007465641 285
1.5975486 2.1278608 -0.031116243 302
1.3026354 1.8754077 -0.051419344 215
1.2198035 1.8953515 -0.068903692 223
2.1320119 2.6324043 -0.13066678 219
1.4059665 1.8709134 -0.11220853 303
1.33234 1.9128958 -0.13388309 167
1.2267747 1.9050875 -0.15201087 215
2.4418454 3.0128064 -0.29105079 133
1.5911695 2.1148248 -0.22368033 198
1.7844037 2.5608938 -0.29317746 135
1.7571263 2.7263827 -0.33684823 178
1.8445388 2.2736442 -0.32731444 259
2.0651252 2.7421689 -0.41657159 247
1.4160757 2.0296421 -0.32449761 232
1.1497166 1.7835752 -0.29909983 228
1.8182662 2.2375855 -0.42935488 245
1.9077863 2.5309479 -0.50233012 319
1.2290576 1.760151 -0.36140707 95
1.1532069 1.7876875 -0.37974724 157
1.7235291 2.1181288 -0.51015902 159
2.2525399 2.9849513 -0.7347455 291
1.8366424 2.6294019 -0.66228122 297
2.0749407 3.216918 -0.83003104 108
1.7635508 2.1632228 -0.62902874 189
1.4765431 1.9540141 -0.57611251 153
1.7594538 2.5178661 -0.75448138 233
2.6153729 4.0557184 -1.237457 214
1.8715882 2.2914951 -0.78481162 110
1.5155865 2.0037193 -0.69234622 61
1.732403 2.4771287 -0.86449373 299
3.2464583 5.0370588 -1.7821497 120
1.6079066 1.9437978 0.75778824 281
1.273421 1.6626469 0.6053136 255
1.2088742 1.7068173 0.58192694 150
1.1569232 1.7697499 0.56677634 195
1.8639491 2.2543688 0.758946 215
1.3327811 1.7393328 0.54495943 158
1.2539037 1.7687579 0.51736081 169
1.1724787 1.7889059 0.48861626 132
1.961691 2.3723307 0.67743683 341
1.9597471 2.5561621 0.67535782 238
1.7062073 2.4025981 0.58856106 178
1.8903584 2.8793836 0.65401345 251
2.1383784 2.5852687 0.60977411 372
1.511662 1.9707128 0.42611057 229
1.4575326 2.0511372 0.40722972 296
1.1261054 1.7122794 0.31195423 216
1.6759251 2.0265296 0.37960768 164
1.5153522 1.974025 0.3347455 269
1.2507435 1.7576597 0.26934969 163
1.1251956 1.709336 0.23602051 226
1.6860384 2.0377443 0.283678 395
1.3929973 1.8127348 0.22307064 164
1.2528151 1.7591406 0.1900091 254
1.1505738 1.7455002 0.16376249 132
1.9977233 2.4123883 0.22155008 406
1.8744155 2.4379807 0.18809056 250
1.5142901 2.1251917 0.13511428 229
1.2410048 1.8804039 0.094940796 216
1.9627272 2.3686972 0.10516571 248
1.6260796 2.1129181 0.065812096 255
1.4448519 2.0251217 0.037820667 174
1.9171486 2.9018297 0.020274539 212
2.2835464 2.7532327 -0.0073667853 283
1.9822935 2.5739212 -0.037991986 201
1.3325157 1.8690495 -0.051689494 182
1.2628139 1.9102571 -0.070003703 230
2.4629233 2.9658155 -0.14870574 330
1.4654092 1.9009844 -0.11508199 277
1.3835831 1.9353858 -0.13663529 208
1.2500607 1.8898896 -0.15201087 198
3.3046322 3.9765637 -0.38804281 299
1.6754476 2.1708672 -0.23176515 178
1.4125936 1.9751649 -0.22808924 125
1.8695141 2.8240457 -0.35172287 151
1.8417952 2.2141643 -0.32198143 200
1.894706 2.4526572 -0.37609503 354
1.4755125 2.0604801 -0.33229807 152
1.1518371 1.7396092 -0.29407528 164
1.8911736 2.2698169 -0.43995988 283
1.9097023 2.4698415 -0.49481633 354
1.4573648 2.0334878 -0.42117122 124
1.1620076 1.7537061 -0.3755298 116
1.9760952 2.3685451 -0.57627034 172
2.2169249 2.8639724 -0.71161002 232
2.0536509 2.8645463 -0.72780162 185
2.1077838 3.1814365 -0.82748818 232
1.9401183 2.3210552 -0.6817959 217
1.7007836 2.1942577 -0.65304971 192
4.4390426 6.1893134 -1.870818 114
3.0115707 4.5466242 -1.3984109 234
1.8697802 2.232785 -0.77250493 167
1.7457179 2.2500389 -0.78480077 197
3.6262579 5.0519586 -1.7784815 165
3.085798 4.66116 -1.6624275 174
1.7877411 2.1079853 0.8302874 233
1.286607 1.6378294 0.60198164 177
1.2569174 1.7292603 0.59479314 207
1.1914752 1.7746656 0.57299042 187
1.9064951 2.2490463 0.76497346 243
1.3252414 1.6862227 0.53337485 218
1.2617811 1.7343601 0.51179028 178
1.2074078 1.793793 0.49396122 167
2.0512846 2.419594 0.69806939 314
1.9691885 2.5042241 0.66797012 283
1.7424932 2.3909895 0.59091139 175
1.8991882 2.8168685 0.64505947 222
2.2463043 2.6488798 0.6312325 355
1.5503578 1.9706045 0.43016875 175
1.4616545 2.0043828 0.40147835 193
1.2001517 1.7769806 0.32640073 218
3.3443692 3.9444344 0.7464999 282
1.5321053 1.9459363 0.33314574 278
1.2722185 1.7421788 0.26934969 207
1.1394109 1.6855233 0.23464562 297
1.8575678 2.1897779 0.30799326 193
1.740428 2.2082276 0.27434677 236
1.2460946 1.7050297 0.18580225 220
1.1584948 1.7114356 0.16188826 122
2.0116823 2.3694417 0.21985671 421
1.9412748 2.4618213 0.19175346 426
1.5544024 2.1257963 0.1363553 209
1.3917867 2.0536041 0.10454012 193
2.9467061 3.4686644 0.15559606 161
1.7262114 2.1869693 0.06877327 336
1.5688275 2.1427755 0.040374476 163
1.7505034 2.5801806 0.018175965 161
1.9440314 2.2861991 -0.0061805211 222
1.5749118 1.9938534 -0.029713031 237
1.4616073 1.9977921 -0.055741806 210
1.2457401 1.8350738 -0.067803673 250
2.4758129 2.9079776 -0.14731812 177
1.9495249 2.4658158 -0.15071286 290
1.3647109 1.860303 -0.132507 186
1.3000679 1.9140246 -0.15522377 210
4.0516267 4.7554927 -0.46886945 59
1.5906411 2.0095091 -0.2166061 221
1.8537824 2.5259628 -0.29429963 219
1.9375799 2.8502462 -0.35792062 148
3.0528054 3.5797336 -0.52596962 313
1.9320588 2.4385586 -0.37754059 254
1.8811424 2.5599635 -0.41654265 194
1.306721 1.9218705 -0.32757223 151
1.7647064 2.0659411 -0.40460989 318
1.7631252 2.2233443 -0.44973341 253
1.748621 2.3777072 -0.49687245 153
1.1900862 1.7490814 -0.37763855 121
1.8593323 2.1737986 -0.53439981 233
1.8858392 2.3754487 -0.59593242 204
2.2070382 3.0000579 -0.76905513 207
2.1532629 3.1650274 -0.83003104 152
1.8161077 2.1192915 -0.62902874 205
2.0110707 2.5298367 -0.76021206 96
1.5996737 2.1735845 -0.66288447 100
3.1521244 4.6342726 -1.4371591 182
1.8517065 2.1568685 -0.75404477 294
1.6075233 2.020237 -0.71147478 119
3.7290337 5.0628161 -1.798279 83
1.7071812 2.5112276 -0.90304708 276
2.1904962 2.5195446 1.0029043 234
1.2993766 1.6129401 0.59864962 144
1.2711319 1.7044383 0.59157658 201
1.1868498 1.7217385 0.56056225 202
1.9415697 2.2342489 0.76798707 281
1.3604497 1.6879669 0.53916717 194
1.3946836 1.8684049 0.55635434 159
1.5086722 2.1830502 0.60620487 229
2.119261 2.438468 0.71096474 262
2.0218883 2.5072978 0.67535782 299
2.1029062 2.8123686 0.70137674 186
2.0074229 2.8999791 0.66968286 171
3.3243625 3.8240058 0.92091984 309
1.5447173 1.9146113 0.42205235 168
1.4861413 1.9862951 0.40147835 351
1.2218676 1.7621192 0.32640073 225
1.7563198 2.0206463 0.38646549 124
1.6006967 1.9825081 0.34274417 267
1.4934177 1.9932629 0.31097874 206
1.166806 1.6812075 0.23602051 194
2.1661618 2.4909401 0.35406429 139
1.7824104 2.205281 0.27667752 248
1.3099518 1.7469928 0.19211252 173
1.2067186 1.7363859 0.16563675 152
3.0700796 3.5273995 0.33077285 252
1.9713389 2.4378135 0.19175346 405
1.5947554 2.1257336 0.13759629 288
1.4374256 2.0658946 0.10605581 159
3.0363076 3.4865074 0.15805608 385
1.9491553 2.4080589 0.076472327 215
1.62383 2.1617362 0.041104134 143
1.5008411 2.1547897 0.015307918 224
1.8852037 2.1626682 -0.005908669 145
1.6823394 2.0769417 -0.031256564 302
1.4211951 1.8933532 -0.053310417 260
1.2818815 1.8393291 -0.068537019 260
3.4022954 3.8982356 -0.19958484 37
2.017381 2.4882596 -0.15358633 352
1.4738891 1.9582804 -0.1407636 200
1.371397 1.9666743 -0.16084638 152
3.4169698 3.9122915 -0.38983893 33
2.1050107 2.5932884 -0.28229535 200
1.8702674 2.4839351 -0.29205522 198
1.8562863 2.6598604 -0.33684823 298
3.1122029 3.5599585 -0.52863616 185
1.6914126 2.081821 -0.32549927 192
1.8479519 2.45118 -0.40250188 237
1.391418 1.9933829 -0.34264585 171
1.9775845 2.2584395 -0.44702986 98
1.7304549 2.1279771 -0.43470576 154
1.9701046 2.6111207 -0.55066019 229
1.353521 1.9377214 -0.42192185 135
1.8314309 2.0887327 -0.51897389 206
1.7736037 2.1786289 -0.55197495 235
2.2082887 2.9258471 -0.75692177 203
1.8360368 2.6287916 -0.69525957 352
1.8960592 2.1584098 -0.64749724 226
1.7467405 2.1428032 -0.65030193 177
1.4647157 1.9398838 -0.59704924 129
1.7646499 2.5271451 -0.79036295 203
1.9086865 2.1688113 -0.76635152 237
1.7345867 2.1258473 -0.75610799 136
2.0449891 2.7062423 -0.97008079 163
1.7312864 2.4806566 -0.89962643 228
2.3359447 2.6211734 1.0546893 162
2.0165405 2.441231 0.91518974 118
1.2708782 1.6611655 0.58192694 164
1.2547538 1.773276 0.58231151 172
1.9379373 2.1755612 0.75593239 372
1.8261659 2.2097414 0.71293634 169
1.3678319 1.7862781 0.5368576 195
1.5082735 2.1262054 0.59551495 214
2.063272 2.31602 0.68259495 306
1.9926318 2.4098876 0.65565729 246
2.1300981 2.777014 0.69902641 265
2.2135715 3.1153877 0.72564524 190
3.4181678 3.8358104 0.93379486 61
1.7037969 2.0595458 0.45857611 141
1.5320417 1.9960996 0.40722972 342
1.2846742 1.8049837 0.3372356 180
1.7651823 1.9812058 0.38303658 139
1.7538351 2.1184504 0.36993974 135
1.5105094 1.965345 0.30949199 256
1.256515 1.7638553 0.24976926 178
3.0381422 3.4082739 0.48971781 68
1.7636127 2.1280673 0.26968533 360
1.8341697 2.3845685 0.26468056 125
1.2209886 1.7117076 0.16469963 181
3.0892289 3.4626632 0.3282328 394
2.0393319 2.4595406 0.19541639 391
1.7303531 2.2484615 0.14690381 209
1.4975085 2.0968835 0.10858196 251
3.0549037 3.4221442 0.15682605 256
2.6604247 3.2055357 0.10282677 343
1.6429119 2.1321423 0.040921718 175
1.4852985 2.0776389 0.014888204 199
2.9750082 3.3294847 -0.0091956099 130
2.313349 2.7853665 -0.042341948 309
1.4443226 1.8757703 -0.053310417 216
1.3671608 1.9112593 -0.07183706 363
2.914206 3.2574308 -0.16859484 294
2.3082838 2.7767031 -0.17312585 327
1.7686962 2.2909138 -0.16622145 194
1.4023964 1.9594336 -0.16164961 210
2.8900402 3.2281504 -0.32517761 106
2.6491718 3.1830366 -0.35000581 284
1.9225173 2.4891634 -0.29542187 198
1.8748862 2.6174738 -0.33436912 236
2.8532209 3.1840031 -0.47797239 77
2.2810614 2.7382159 -0.43247312 248
1.8633351 2.4094939 -0.39938167 205
1.4226953 1.9858173 -0.34432068 187
1.8941566 2.1103401 -0.42228487 105
1.7792081 2.1338904 -0.44034111 250
2.016484 2.605464 -0.55464447 191
1.5217435 2.1225832 -0.46620521 121
1.8332698 2.0397811 -0.51236272 230
1.9586586 2.3465319 -0.60055953 297
1.6972589 2.1922874 -0.57249409 100
2.0526392 2.8634124 -0.76391673 217
1.9694028 2.1871762 -0.6633274 185
1.8403248 2.2018723 -0.67503172 239
1.6453986 2.1244586 -0.66002214 141
1.7481296 2.4391637 -0.76949853 142
1.8108516 2.0074258 -0.71712452 237
1.8867384 2.2552438 -0.81030548 78
3.8662944 4.9880137 -1.8048782 88
3.4495161 4.8155909 -1.7616259 76
0 0 0 16
2.0761476 2.4514899 0.92851776 167
1.3482622 1.7182052 0.60765934 178
1.2083142 1.6639566 0.55124116 201
1.9958161 2.1859274 0.76798707 185
1.8757293 2.21382 0.72162479 258
1.3680207 1.7418195 0.52850181 182
1.5617926 2.1453681 0.60620487 212
2.1705632 2.3770702 0.70838571 391
2.0220549 2.3852534 0.65565729 275
2.003943 2.5471976 0.6473192 263
2.2377436 3.0689375 0.72116822 239
0 0 0 5
2.119102 2.4984939 0.56206012 301
1.5417671 1.958533 0.4033955 294
1.4676629 2.0094252 0.37876931 254
1.7573254 1.9243146 0.37617877 34
3.1034114 3.6563113 0.64509493 258
1.5713712 1.993418 0.31692573 210
1.3132417 1.7964215 0.25664365 172
0 0 0 6
1.9442589 2.2882969 0.29299265 190
1.781852 2.2586465 0.25311175 207
1.2489681 1.7062486 0.16563675 130
3.0991771 3.3891582 0.32484603 57
2.0538452 2.4160779 0.19395122 349
1.8840361 2.3869736 0.15745234 284
1.5443888 2.1073601 0.11009764 269
20.138466 22.009649 1.019882 24
2.9327848 3.4467416 0.1117103 140
2.4054744 3.0437829 0.058980782 84
1.5319763 2.0882819 0.01509806 232
0 0 -0 9
1.6550121 1.9436702 -0.029853353 357
1.6828561 2.1309419 -0.061144888 157
1.390512 1.8943383 -0.07183706 350
2.5568573 2.7883656 -0.14593051 157
2.5132318 2.948864 -0.18576905 394
2.0420997 2.5789845 -0.1889271 241
1.4405107 1.9613765 -0.16325606 198
2.5087306 2.7339647 -0.27847776 142
3.0372963 3.5596125 -0.39548299 191
1.9084074 2.4091928 -0.2886886 163
1.8503132 2.5173304 -0.3244527 324
2.4241834 2.639329 -0.40064353 120
2.3067553 2.700959 -0.4310275 305
1.9075503 2.4050908 -0.40250188 258
1.7496041 2.3798816 -0.41633913 249
2.426173 2.6372421 -0.53363729 62
1.9438795 2.2740607 -0.47415328 366
1.9453076 2.4507627 -0.5267545 188
2.1427121 2.9125783 -0.64544731 143
2.2018232 2.3901913 -0.6071223 50
1.8648145 2.1791778 -0.56354266 260
1.643648 2.0700543 -0.54580063 109
2.2960958 3.1214147 -0.84020245 172
1.9246399 2.0854201 -0.63958216 161
1.8140025 2.1170311 -0.65579742 192
1.7873185 2.2501092 -0.7058205 148
1.6333085 2.2208793 -0.70690542 91
1.9455886 2.1042838 -0.76019818 96
1.8540192 2.1616702 -0.78480077 77
3.9918301 5.0214758 -1.8345746 249
3.5219758 4.7914333 -1.7684672 126
0 0 0 11
1.954921 2.2517254 0.86187768 256
1.3185104 1.638483 0.58514351 161
1.2771187 1.7140651 0.57299042 206
2.0542367 2.1951957 0.78004181 271
1.9562104 2.252178 0.74189782 220
1.4332227 1.779443 0.54521334 215
1.6160049 2.1635318 0.61689478 282
2.2316027 2.3844819 0.71870196 102
2.2052522 2.5375566 0.70490855 273
2.9882295 3.703866 0.9505114 108
1.9150587 2.5598071 0.60700506 213
0 0 0 7
3.3214078 3.8200178 0.86845386 237
1.6996211 2.1053765 0.43790379 254
1.4922112 1.9912633 0.37876931 280
0 0 0 12
0 0 0 6
1.6406298 2.0295465 0.32584623 154
1.4424796 1.9232203 0.2772668 188
18.543081 19.801624 2.9097257 23
3.2351294 3.7142363 0.48061672 250
1.8846191 2.3295441 0.26362884 192
1.2698123 1.6907934 0.16563675 162
19.1106 20.390533 1.9767346 34
3.1063201 3.5645919 0.28918692 306
1.913186 2.3636737 0.15745234 232
1.5989538 2.1265807 0.11211855 268
19.980442 21.305962 0.99856174 24
3.0142889 3.4556942 0.11319089 97
1.9364889 2.3894773 0.046758994 140
1.5791359 2.0980878 0.015307918 365
0 0 -0 9
1.6471766 1.887055 -0.029292068 267
1.5956252 1.9702835 -0.057092577 332
1.4425161 1.915457 -0.073303752 359
2.237767 2.3810532 -0.12604141 123
2.9514284 3.3781495 -0.21507832 41
2.0886979 2.5723314 -0.19030321 342
1.5293189 2.0296128 -0.17048512 275
2.2633567 2.4065974 -0.24794325 83
3.3720303 3.8550792 -0.43287534 28
1.9227626 2.3670454 -0.28644419 102
1.8954386 2.5134945 -0.32693183 340
2.2275078 2.3662448 -0.36331236 70
2.0415392 2.3318567 -0.37609503 264
2.0119953 2.4738071 -0.41810271 228
1.8788509 2.491046 -0.43978703 301
1.9860889 2.1063983 -0.43112236 206
1.90134 2.1698096 -0.45724723 214
1.7436607 2.1422012 -0.46499825 187
1.979026 2.6220522 -0.58640289 160
1.9475601 2.062793 -0.5299924 113
1.8060013 2.0587609 -0.53809363 277
1.7134483 2.104408 -0.56036073 96
2.3412921 3.1023641 -0.8427453 249
2.0627074 2.1807086 -0.67651922 101
1.8706806 2.1297164 -0.66678846 132
1.8295157 2.2460778 -0.71154529 149
1.5484207 2.0522048 -0.65921533 132
1.8835053 1.9876385 -0.7263546 68
1.7505478 1.9910556 -0.73060328 169
1.9245176 2.3608589 -0.87109298 163
1.8075682 2.3968849 -0.89278519 70
0 0 0 7
1.9517503 2.193119 0.84854972 275
1.390023 1.6845996 0.60765934 107
1.3191729 1.7258903 0.58231151 268
2.1212204 2.2117369 0.79511023 197
1.9449818 2.1845152 0.72741711 262
1.6853648 2.0407166 0.63155621 139
1.699355 2.2178266 0.63827449 186
0 0 0 6
2.1737287 2.4401467 0.68520808 271
1.9683403 2.3793781 0.61676496 237
2.1975436 2.8634546 0.68535239 230
0 0 0 0
3.3601658 3.7701418 0.86642474 134
1.8537377 2.2394903 0.47049496 386
1.4948441 1.9445852 0.37335184 253
10.889217 11.351501 2.2706454 26
0 0 0 0
1.6502142 1.9909252 0.32287276 101
1.4514333 1.8864778 0.27451706 203
12.241301 12.754745 1.8961635 60
0 0 0 6
1.8672729 2.2510388 0.25731859 207
1.7942398 2.3290057 0.23029834 140
19.865204 20.681076 2.0283828 47
3.062057 3.4279439 0.28112853 174
