# .PCD v0.7 - Point Cloud Data file format
VERSION 0.7
FIELDS x y z intensity
SIZE 4 4 4 4
TYPE F F F F
COUNT 1 1 1 1
WIDTH 1413
HEIGHT 1
VIEWPOINT 0 0 0 1 0 0 0
POINTS 1413
DATA ascii
4.686008 -34.033352 6.9832463 63
5.9436083 -33.916611 6.6620073 133
2.3423755 -37.13081 6.8887525 38
3.3804321 -33.750214 5.944232 152
4.6366806 -33.80608 5.6428366 126
5.9149532 -33.892242 5.3629985 136
2.3419976 -37.124821 5.4930143 85
3.369503 -33.700409 4.6634898 166
4.6658878 -34.063194 4.4104414 43
5.8866839 -33.869862 4.081028 139
2.3492348 -37.239544 4.1260481 96
3.3638282 -33.703072 3.4225256 144
4.6638031 -34.181072 3.1577575 47
5.8728843 -33.860519 2.8254039 149
2.3411717 -37.215099 2.7644827 97
3.3512468 -33.696033 2.189775 150
4.5947418 -33.762901 1.8811771 118
5.8640265 -33.844528 1.5777917 147
2.3244669 -37.052765 1.4002657 51
3.3387141 -33.68943 0.95746756 137
4.5915399 -33.827747 0.64356112 56
5.8435292 -33.831528 0.32358557 154
0.82323384 -13.196332 0.020769062 392
1.3047605 -13.189193 -0.1064088 234
1.798552 -13.302924 -0.23431602 68
0 -0 -0 5
0.77775753 -12.57329 -0.43990818 297
1.235728 -12.581026 -0.56078535 365
1.6776922 -12.408989 -0.67377746 330
2.1051147 -12.213127 -0.78405881 441
0.719046 -11.657171 -0.83308679 307
1.1301932 -11.548003 -0.93764609 315
1.4896694 -11.061906 -1.0059793 447
1.8045171 -10.491043 -1.0625228 379
0.63628042 -10.433911 -1.1282078 332
0.91265392 -9.3589458 -1.1046386 306
0.63993657 -4.7645798 -0.61072117 395
0.79092127 -4.6030412 -0.63894808 535
0.26499456 -4.3959689 -0.63854223 426
0.41279134 -4.2483816 -0.65925598 544
0.55686718 -4.1626139 -0.68998492 625
0.7027486 -4.0984607 -0.72498703 616
0.24293025 -4.0653849 -0.74379557 723
0.38620436 -4.0037899 -0.77313095 660
0.52944475 -3.9628928 -0.80833781 664
0.67183274 -3.9181583 -0.84425932 728
0.22830386 -3.8774405 -0.85896319 767
0.36659884 -3.8214746 -0.88630724 720
0.50682253 -3.7986162 -0.92358631 733
0.64604211 -3.7677462 -0.96233213 779
0.21662997 -3.7347162 -0.97515315 815
0.35282895 -3.7120106 -1.0095832 790
0.49125224 -3.6917474 -1.0482533 775
0.62279654 -3.6283751 -1.0779227 846
0.66111803 -11.758224 3.5803092 61
1.1296481 -11.954604 3.5158939 396
2.2561343 -17.049368 4.8470964 129
2.9142675 -17.106464 4.7146859 73
0.97189677 -17.125546 4.5096331 223
3.1810241 -33.726326 8.5404997 109
4.4815559 -34.003536 8.2974606 70
5.7492828 -33.890621 7.9803009 134
2.1107421 -37.192848 8.3269644 46
3.1689148 -33.723854 7.2183428 130
4.4676447 -33.989563 6.9685054 102
5.7177262 -33.847889 6.6414919 166
2.1153393 -37.15921 6.8914833 60
3.1683974 -33.718346 5.9350839 144
4.4253206 -33.804546 5.6379418 137
5.7013102 -33.894772 5.3577619 147
2.1151159 -37.155285 5.4954977 56
3.1620102 -33.713547 4.6625347 156
4.4342918 -33.919071 4.388175 78
5.6748142 -33.881836 4.0781984 163
2.2103994 -38.829086 4.3005819 25
3.1566882 -33.720104 3.4222238 129
4.4235129 -33.97501 3.1361539 66
5.6535096 -33.827106 2.8196681 136
0 -0 0 12
3.140166 -33.670254 2.1868064 146
4.3864613 -33.782536 1.8807359 141
5.6475315 -33.827648 1.5753596 132
0 -0 0 10
3.128978 -33.677433 0.95656294 153
5.290225 -40.854595 0.77661234 15
5.6315651 -33.841099 0.32334051 152
0.7430892 -13.21611 0.020792624 378
1.2134669 -13.085432 -0.10550961 280
1.7153585 -13.30181 -0.23410659 130
0 -0 -0 6
0.69814909 -12.53392 -0.43837261 314
1.1533822 -12.532662 -0.55830359 316
1.5965396 -12.380424 -0.67168194 375
1.9021292 -11.454932 -0.73462105 225
0.64357913 -11.590652 -0.82803524 251
1.0621357 -11.585491 -0.94014305 261
1.424431 -11.091582 -1.0078644 404
1.7428764 -10.518605 -1.0642111 396
0.57251924 -10.442582 -1.1287442 319
0.85485005 -9.3604136 -1.104172 298
0.61257988 -4.7831764 -0.61261159 374
0.76104474 -4.5980325 -0.63759261 461
0.2393536 -4.4222174 -0.64212954 443
0.38680553 -4.2518187 -0.65940857 592
0.53044146 -4.1591005 -0.6888501 632
0.67839032 -4.1075554 -0.72584581 645
0.21808624 -4.0687637 -0.74415487 706
0.36189514 -4.0090179 -0.77369714 694
0.50487131 -3.9641223 -0.8079415 682
0.64889449 -3.9289625 -0.8457135 738
0.2048679 -3.8855937 -0.86047471 783
0.34514692 -3.8459728 -0.8914811 777
0.48313713 -3.7987611 -0.92288339 759
0.62117332 -3.7611148 -0.95964682 773
0.1937101 -3.735975 -0.97515315 812
0.32987499 -3.712183 -1.0090606 774
0.46665302 -3.6794131 -1.0439183 767
0.6002084 -3.6302342 -1.0773606 805
0.5889585 -11.762058 3.5803092 130
1.0563592 -11.962266 3.5161748 347
2.1343808 -16.92729 4.8085761 86
5.5716314 -33.96236 9.3507156 53
0.85585076 -16.914827 4.4526777 240
2.9700224 -33.69981 8.5290098 104
4.2736773 -34.037144 8.2991066 55
5.5319614 -33.868542 7.966959 123
1.8813077 -37.181709 8.3217287 51
2.9577389 -33.694923 7.2081299 139
4.2629004 -34.047455 6.9748802 91
5.5093017 -33.87846 6.6407328 134
1.8887408 -37.199966 6.8967633 41
2.9586895 -33.705753 5.9295597 147
4.2133007 -33.794838 5.6319051 120
5.4788585 -33.840359 5.3437462 154
1.8864936 -37.155708 5.4937449 66
2.9515438 -33.691856 4.6569428 153
4.2351522 -34.018475 4.3975902 46
5.4568572 -33.854256 4.0707717 168
1.9900494 -39.195305 4.3397093 60
2.9439204 -33.672432 3.4154882 134
4.2243958 -34.07761 3.1431727 46
5.4415708 -33.834591 2.8174558 170
0 -0 0 7
2.934289 -33.697834 2.1873872 157
4.170764 -33.741432 1.8769876 166
5.4354258 -33.834049 1.5740749 147
2.1038005 -41.723293 1.575676 18
2.9170098 -33.63525 0.95483845 139
5.2584996 -42.663517 0.81036991 33
5.4216008 -33.861195 0.32320857 119
0.65743178 -13.129536 0.020649681 392
1.124531 -12.993008 -0.10470677 325
1.6350474 -13.323001 -0.23429856 225
2.1100831 -13.193501 -0.35920903 178
0.61850911 -12.483068 -0.43645313 286
1.0728728 -12.497699 -0.55644232 305
1.5159225 -12.352325 -0.66964018 349
1.7534024 -10.975604 -0.70317787 356
0.56959522 -11.536601 -0.82390857 440
0.93397129 -10.924408 -0.88601553 336
1.3679442 -11.195021 -1.0164816 292
1.6848813 -10.570374 -1.0683826 370
0.50896567 -10.456822 -1.1299247 282
0.79798937 -9.3724098 -1.1049886 297
1.1098084 -9.1088896 -1.1657389 232
0.733908 -4.6094651 -0.63854152 452
0.21235713 -4.426568 -0.64256001 474
0.36112708 -4.2590361 -0.66017181 597
0.50562471 -4.1681547 -0.68982279 615
0.65023738 -4.0931549 -0.72258246 611
0.19344305 -4.0769033 -0.74541247 756
0.33605516 -3.9964848 -0.77086592 679
0.47912401 -3.9554687 -0.80556345 648
0.62370032 -3.9261076 -0.84425932 756
0.18038653 -3.8731227 -0.85745168 793
0.32137972 -3.846076 -0.89103115 798
0.45993602 -3.8026195 -0.92311776 739
0.59701884 -3.7581513 -0.95793796 821
0.17051789 -3.7312934 -0.97363967 810
0.30637541 -3.7054794 -1.0067085 789
0.44280002 -3.6716948 -1.040938 763
0.57762092 -3.6319532 -1.0767987 814
0.51505542 -11.726261 3.5683832 160
0.9839614 -11.980957 3.5198278 424
2.0294459 -16.931465 4.8061347 212
2.7014189 -17.123781 4.7099667 267
0.75187546 -16.915895 4.4516611 186
2.7628717 -33.713535 8.5280323 120
4.0525413 -33.960423 8.2741814 52
5.3272176 -33.922054 7.9717078 87
1.6529562 -37.188652 8.3208561 40
2.7495828 -33.695866 7.2045865 124
4.0468464 -34.013611 6.962729 99
5.3060241 -33.941696 6.6466208 71
1.6606697 -37.215767 6.8976736 36
2.7502971 -33.70462 5.92628 164
4.000638 -33.775967 5.6245637 130
5.2698989 -33.865524 5.3425136 161
1.661606 -37.236752 5.5041165 35
2.7422667 -33.678719 4.6527138 153
4.0292516 -34.068447 4.4007716 56
5.2774534 -34.07061 4.0928159 72
1.6978062 -38.048 4.2114468 26
2.7319369 -33.624413 3.4088528 114
4.0163846 -34.112778 3.1440842 51
5.2233605 -33.799381 2.8118019 130
1.8558351 -41.753075 3.0985184 78
2.7234445 -33.665474 2.1841605 117
3.9617891 -33.750519 1.8761055 142
5.2117205 -33.763103 1.5692568 123
1.8475748 -41.731422 1.575525 91
2.7125793 -33.677425 0.95554525 89
4.9969707 -42.69796 0.81042641 59
6.5712099 -42.718628 0.40736118 44
0.57716531 -13.140315 0.020660676 388
1.0488719 -13.050497 -0.10511622 341
1.5316325 -13.147068 -0.23103496 274
2.0278752 -13.198297 -0.35899407 312
0.54142618 -12.475646 -0.43606925 304
0.99101108 -12.439315 -0.55356169 314
1.4399861 -12.360403 -0.66958648 425
1.6860243 -10.986156 -0.70317787 367
0.49694505 -11.497027 -0.82084912 393
0.86613464 -10.919997 -0.88521004 444
1.2965883 -11.180449 -1.0144171 344
1.6254125 -10.615922 -1.0719581 432
0.44682178 -10.507428 -1.1350753 300
0.73952812 -9.3652487 -1.1035886 323
1.0569727 -9.1421366 -1.1691417 448
0.70740831 -4.6256337 -0.64016795 435
0.18457189 -4.4129562 -0.64040762 527
0.33599421 -4.2739797 -0.66215616 611
0.48128089 -4.181962 -0.69160616 655
0.62600154 -4.102911 -0.72361296 637
0.16870815 -4.0848937 -0.74667007 723
0.31228969 -4.0082622 -0.77275348 732
0.45473281 -3.9573605 -0.80536526 648
0.59782797 -3.9182568 -0.84176642 710
0.1566181 -3.8741567 -0.85745168 792
0.29717317 -3.8402038 -0.88923156 770
0.43515441 -3.7928143 -0.9200719 752
0.57365549 -3.7598264 -0.95744967 766
0.14761989 -3.7322695 -0.97363967 843
0.28363326 -3.7072897 -1.0067085 822
0.41960627 -3.6686044 -1.0393124 782
0.55402058 -3.6268907 -1.0742697 780
0.43536553 -11.524599 3.5061374 132
0.9097749 -11.978156 3.5172987 394
1.9241052 -16.931168 4.802608 283
2.596154 -17.13908 4.7097044 269
0.47935066 -12.51522 3.2927239 289
2.5737615 -33.964809 8.5874367 22
3.8456171 -33.998173 8.2774734 56
5.1427903 -34.112068 8.0087948 85
1.4773309 -38.571178 8.6280022 15
2.5957408 -34.414295 7.3546519 24
3.8311491 -33.976452 6.9501796 101
5.1104827 -34.059055 6.6633368 69
1.4847982 -38.590031 7.1505604 14
2.597667 -34.439831 6.0526357 19
3.7869351 -33.743011 5.6151004 144
5.0586481 -33.874748 5.3389711 148
1.4939127 -38.82692 5.7377033 24
2.6087883 -34.667953 4.787075 28
3.8193626 -34.085629 4.3998809 38
5.0793953 -34.177002 4.1017752 42
1.5029895 -39.062828 4.3226733 59
2.6122711 -34.795395 3.525876 31
3.799602 -34.070469 3.1379771 56
5.007103 -33.771645 2.8068855 137
1.602051 -41.827457 3.1032503 22
2.5964665 -34.747345 2.2532747 26
3.7516465 -33.747398 1.8746171 130
4.9996266 -33.761833 1.5677425 140
1.5981053 -41.915722 1.5820832 16
2.5907762 -34.834827 0.98791504 24
4.7315836 -42.698006 0.80986094 39
6.3003573 -42.69978 0.4068051 66
0.49694219 -13.154601 0.020677956 359
0.97062558 -13.081618 -0.10531693 306
1.4396455 -13.053854 -0.22923736 313
1.9115834 -12.971163 -0.35249034 338
0.46494126 -12.480731 -0.43613905 374
0.91290885 -12.42125 -0.55249816 387
1.3633507 -12.362058 -0.66921037 340
1.6857272 -11.452458 -0.73234808 176
0.4243955 -11.446034 -0.81700706 347
0.79809654 -10.911188 -0.88408244 395
1.218074 -11.098103 -1.0062486 283
1.5645807 -10.655231 -1.0749377 402
0.38230488 -10.508979 -1.134968 343
0.68118483 -9.3577232 -1.1021885 359
1.0002105 -9.1425333 -1.1683856 491
0.67743129 -4.6191044 -0.638677 453
0.15632652 -4.3813682 -0.63567233 508
0.30947763 -4.272018 -0.66154557 541
0.45635942 -4.1917033 -0.69274098 647
0.60038692 -4.1037502 -0.72309768 662
0.14402072 -4.0966668 -0.74864638 762
0.28825173 -4.0179391 -0.77426344 726
0.42948911 -3.9513066 -0.80358177 638
0.57434118 -3.9257228 -0.84259742 732
0.13281032 -3.874069 -0.85723579 799
0.27312002 -3.8351517 -0.88765687 754
0.41134951 -3.7905803 -0.91890043 756
0.55197859 -3.7728708 -0.9598909 777
0.12449016 -3.726335 -0.971874 874
0.26047406 -3.7031829 -1.0051404 855
0.39532846 -3.6548407 -1.0347065 765
0.5309214 -3.6245244 -1.0725837 793
0.36836457 -11.644677 3.5419145 319
0.83753055 -12.001702 3.5226376 379
3.6323433 -33.810665 9.5840569 113
2.5089686 -17.278837 4.7437887 276
0.39636379 -12.325564 3.242125 242
1.1854151 -17.02964 4.3037415 164
3.6258807 -33.917717 8.2523127 77
4.9321322 -34.134308 8.0067596 74
1.2898812 -40.110916 8.9704866 13
2.4868388 -35.906788 7.6702056 24
3.6074429 -33.857052 6.9210968 109
4.9000063 -34.080051 6.661437 85
1.3008291 -40.232769 7.4533329 21
2.4860005 -35.894684 6.3055196 33
3.574724 -33.717541 5.6071057 138
4.838387 -33.819073 5.325417 146
1.3126478 -40.598309 5.9981694 25
2.493926 -36.100525 4.9826827 22
3.5783033 -33.807579 4.361073 134
4.8470616 -34.049244 4.0827961 40
1.2626981 -39.053432 4.3206949 63
2.505419 -36.359192 3.6827111 25
3.547194 -33.682144 3.1001482 140
4.7909622 -33.739567 2.8017235 171
0 -0 0 7
2.4923496 -36.354557 2.356462 30
3.5358548 -33.687363 1.8700417 133
4.7877455 -33.759239 1.5662284 138
0 -0 0 8
2.5013268 -36.6731 1.0395936 26
3.5210335 -33.659328 0.63800091 135
6.0353003 -42.716839 0.40660718 52
0.41719788 -13.188387 0.020726651 328
0.89088297 -13.095308 -0.10538115 325
1.3544499 -13.013713 -0.2283822 333
1.8260916 -12.941075 -0.3513616 373
0.38804141 -12.473359 -0.43579003 326
0.83238119 -12.362825 -0.54966187 375
1.2837516 -12.334435 -0.66727608 332
1.706091 -12.10593 -0.77345151 389
0.35286063 -11.406549 -0.81401885 328
0.76850098 -11.473807 -0.92926919 363
1.1445174 -11.052862 -1.0014911 261
1.5067903 -10.718825 -1.0804002 355
0.3175754 -10.503176 -1.1341095 350
0.62335789 -9.3557806 -1.1014885 354
0.94205743 -9.1287622 -1.1658649 494
0.6476987 -4.6133623 -0.63732159 509
0.12944001 -4.3822446 -0.63567233 509
0.28299776 -4.2698922 -0.66093504 486
0.42992556 -4.1875534 -0.69160616 616
0.57150656 -4.0810151 -0.7184602 613
0.11876721 -4.0935397 -0.74792773 719
0.26333565 -4.0157123 -0.77350843 676
0.40583587 -3.9597178 -0.80477083 717
0.54888594 -3.9194856 -0.84051996 694
0.10922924 -3.8816431 -0.8587473 834
0.24964608 -3.8377278 -0.88788188 771
0.39016116 -3.8133423 -0.92382056 776
0.52706993 -3.7637019 -0.95671731 767
0.10141246 -3.7192905 -0.96985614 838
0.23756139 -3.7018216 -1.0043564 785
0.37357882 -3.6639011 -1.036603 778
0.50907153 -3.6305652 -1.0734266 835
0.28830016 -11.30909 3.4392374 305
0.7579022 -11.912755 3.4950998 371
3.4235563 -33.819866 9.5805302 96
2.4039631 -17.301554 4.7458868 311
0.31803671 -12.224317 3.2149189 272
1.0830498 -17.070463 4.3122973 242
3.3975387 -33.73914 8.2036381 134
4.7121911 -34.088665 7.9891205 69
0 -0 0 10
2.3480134 -37.213722 7.9461579 42
3.3851504 -33.734238 6.8916154 169
4.6778283 -34.015129 6.6430116 80
0 -0 0 9
2.344914 -37.164597 6.5259509 53
3.3659079 -33.720188 5.6040063 155
4.6232858 -33.793304 5.316792 142
1.0828651 -41.344334 6.1072936 23
2.342418 -37.228424 5.1362777 116
3.3585033 -33.705528 4.3451686 163
4.6401906 -34.094086 4.084682 45
1.0217197 -39.009773 4.3150897 63
2.3331168 -37.184155 3.7647481 88
3.3395736 -33.694355 3.0993278 169
4.5802307 -33.741661 2.7995112 171
0 -0 0 11
2.3268423 -37.292435 2.4162834 102
3.3218248 -33.634899 1.8659627 148
4.580781 -33.789963 1.5663202 126
1.2653787 -48.965828 1.8474598 25
2.3081985 -37.20256 1.0541812 97
3.3116958 -33.652439 0.63747311 122
4.5587306 -33.76009 0.3210786 95
0.33644599 -13.197697 0.020737646 324
0.81119418 -13.111507 -0.10546947 314
1.2698011 -12.973019 -0.22752704 382
1.7390373 -12.895568 -0.34982973 350
0.29568335 -11.84209 -0.41366374 109
0.75473976 -12.338782 -0.54837668 375
1.2084339 -12.346055 -0.66749096 342
1.6295137 -12.099357 -0.77237815 353
0.28041705 -11.309781 -0.80697507 287
0.7014125 -11.533027 -0.93369931 431
1.0554463 -10.841596 -0.9817431 322
1.4427146 -10.740689 -1.0816915 335
0.25376979 -10.531764 -1.1370069 333
0.56540066 -9.3505068 -1.1004384 342
0.88621819 -9.1363449 -1.1661171 445
0.61700833 -4.5995741 -0.63488179 451
0.10254862 -4.3829565 -0.63567233 480
0.25661495 -4.2685885 -0.66047704 505
0.40299129 -4.1773438 -0.6894986 592
0.54671651 -4.0863981 -0.71880382 574
0.093512513 -4.0882907 -0.74684972 760
0.23834127 -4.0113707 -0.77237588 695
0.38078022 -3.9543278 -0.80318534 696
0.52313977 -3.9101756 -0.83781934 709
0.085302487 -3.8773592 -0.85766762 790
0.22569256 -3.8323784 -0.88630724 834
0.36629051 -3.8108261 -0.92264915 747
0.50332344 -3.7620592 -0.95549673 775
0.078671172 -3.7237124 -0.97086507 812
0.21445164 -3.6964643 -1.0025269 814
0.35118228 -3.6670825 -1.0368739 735
0.4866578 -3.6326692 -1.0731456 835
0.21655224 -11.18916 3.402297 333
0.68005776 -11.834782 3.4709334 386
3.2062337 -33.737709 9.5515041 86
2.2958534 -17.301628 4.7419534 254
0.24271618 -12.210566 3.2108505 247
0.98832494 -17.252008 4.356545 197
3.1878033 -33.731293 8.1968193 110
4.4915943 -34.030987 7.9689941 73
0 -0 0 7
2.122021 -37.269417 7.955121 53
3.1715753 -33.685104 6.8774724 147
4.4530535 -33.921513 6.6192675 119
0 -0 0 6
2.1150963 -37.147797 6.5205998 69
3.1534233 -33.681267 5.5942168 141
4.4114976 -33.787724 5.3115554 150
0 -0 0 9
2.2022545 -38.79789 5.3508458 29
3.1519961 -33.72945 4.3456779 159
4.4062257 -33.931854 4.0619302 61
0.78265983 -39.031204 4.3168483 67
2.1990116 -38.860626 3.9330442 13
3.1271455 -33.653728 3.0937674 163
4.3676057 -33.726631 2.7959878 186
1.0308183 -51.85841 3.8454041 23
2.0817835 -37.01807 2.3976336 19
3.1136336 -33.635754 1.8649153 147
4.3677263 -33.773842 1.5643013 155
0.92699265 -47.048412 1.7748685 38
0 -0 0 10
3.1034017 -33.653206 0.637115 182
5.4964662 -42.677601 0.40556106 47
0.25547948 -13.200513 0.020739216 319
0.7294488 -13.093274 -0.10528481 384
1.1844249 -12.917839 -0.22642754 359
1.6538856 -12.859396 -0.34856662 371
0.21390954 -11.360061 -0.39677238 256
0.677809 -12.321235 -0.54740167 306
1.1271867 -12.293575 -0.66426718 348
1.5561328 -12.116056 -0.77282012 341
0.21029067 -11.272393 -0.80420017 337
0.62883872 -11.50427 -0.93104124 454
0.98519653 -10.807202 -0.97806287 402
1.3866442 -10.826325 -1.0894384 379
0.18939324 -10.547039 -1.1385092 317
0.507801 -9.3498335 -1.0999718 314
0.82816827 -9.1198759 -1.1633445 395
0.59091115 -4.6199808 -0.63718605 377
0.075602137 -4.3805342 -0.63524187 524
0.23100431 -4.2809381 -0.66215616 527
0.37602115 -4.1649961 -0.68706679 556
0.52262968 -4.0974936 -0.72017783 615
0.068507776 -4.0937057 -0.74774808 739
0.21341009 -4.0068736 -0.77124339 680
0.3564218 -3.9556136 -0.80298722 661
0.49752861 -3.9006977 -0.83511871 688
0.061525341 -3.8787861 -0.85788357 805
0.20145489 -3.8200688 -0.88315785 798
0.34176886 -3.8004146 -0.91960335 748
0.48047575 -3.7670004 -0.95598495 802
0.055850428 -3.7260602 -0.9713695 874
0.19151656 -3.6928906 -1.0012201 713
0.32841721 -3.666292 -1.036061 756
0.46314308 -3.6260672 -1.0703356 802
0.14798129 -11.196975 3.4043331 289
0.60428077 -11.77739 3.4529493 381
1.0621856 -11.955315 3.3827677 300
2.1626511 -17.101892 4.6834855 263
0.17149608 -12.48163 3.2817903 270
0.8686347 -16.987568 4.2883406 211
2.9806011 -33.74828 8.1963491 131
4.2816062 -34.04921 7.966959 77
0 -0 0 10
1.8893813 -37.204571 7.9386549 54
2.9674039 -33.733215 6.8834481 155
4.2411771 -33.918972 6.6135693 143
0 -0 0 8
1.8878212 -37.173847 6.5230165 52
2.9466994 -33.699982 5.5942168 163
4.2020249 -33.797489 5.3089371 160
0 -0 0 8
1.9869864 -39.261833 5.4130478 13
2.9373026 -33.660213 4.3343534 142
4.2143884 -34.091301 4.0778451 41
0.54257333 -38.99353 4.312232 65
0 -0 0 8
2.9199891 -33.665337 3.0931294 144
4.1555815 -33.712242 2.7926283 182
0.71267021 -51.868744 3.8457739 33
2.0835738 -41.601852 2.6936431 21
2.9029791 -33.605484 1.8622142 132
4.1544313 -33.751423 1.5620526 125
0.70259374 -51.793407 1.9536707 20
2.0731406 -41.684792 1.1803811 36
2.8919661 -33.614838 0.63604063 139
5.2254963 -42.637074 0.40486363 57
0.17495358 -13.237828 0.020795764 288
0.64810634 -13.077529 -0.10512425 350
1.104118 -12.912909 -0.2262181 375
1.5703363 -12.831597 -0.34754536 307
0.14393513 -11.340175 -0.39603952 349
0.60307211 -12.343123 -0.54819942 268
1.0502021 -12.282351 -0.66330004 381
1.482245 -12.129338 -0.77307266 352
0.14120801 -11.280454 -0.80469823 344
0.55606472 -11.463111 -0.92741662 426
0.91389078 -10.754493 -0.97276682 401
1.3194668 -10.828703 -1.0888424 347
0.12499151 -10.574844 -1.1414063 327
0.45132965 -9.3716221 -1.1021885 328
0.77127397 -9.1139126 -1.1619582 373
0.5635097 -4.6313872 -0.63827038 401
0.048821315 -4.3898225 -0.63653332 578
0.20444945 -4.2763524 -0.66124028 494
0.35111967 -4.1750913 -0.68836373 594
0.4983086 -4.1074691 -0.72138011 648
0.043471381 -4.1019182 -0.74918532 742
0.18988325 -4.0306692 -0.77558476 709
0.33132422 -3.9479589 -0.80100554 650
0.47452754 -3.9114459 -0.83678067 670
0.037724402 -3.8790905 -0.85788357 768
0.17792092 -3.8192863 -0.88270801 798
0.31771332 -3.793721 -0.91749465 744
0.45781997 -3.7737284 -0.95696139 745
0.032875348 -3.7137537 -0.96809047 828
0.16942678 -3.7065313 -1.0046177 586
0.30655509 -3.6759124 -1.0382286 784
0.4393805 -3.6164556 -1.0666826 826
0.079180323 -11.184278 3.4002609 290
0.53278404 -11.798135 3.4580073 372
0.99198097 -11.999976 3.3936186 237
2.0568688 -17.108133 4.6816502 263
0.097502671 -12.823836 3.3715456 230
0.56346238 -12.525995 3.1611292 336
2.7707641 -33.732998 8.1883545 125
4.0670547 -34.028412 7.9561038 79
0 -0 0 9
1.6626765 -37.251617 7.9463673 42
2.7554126 -33.690235 6.8710985 125
4.0291514 -33.912182 6.6073008 159
0 -0 0 8
1.659867 -37.188671 6.5237069 45
2.7389858 -33.706608 5.592422 148
3.987499 -33.762779 5.299542 143
0 -0 0 8
1.743535 -39.216873 5.4052725 23
2.7267842 -33.629162 4.3281188 132
4.0016551 -34.086929 4.0743079 56
0.30379808 -39.059742 4.3192668 74
1.8462687 -41.691628 4.2169561 44
2.7125676 -33.672691 3.0922177 89
3.9459844 -33.714336 2.7907438 205
0.36999664 -48.663044 3.6078529 26
1.8347967 -41.762402 2.7032585 107
2.7001576 -33.665459 1.8645846 98
3.9412289 -33.724686 1.5596666 138
0.36747867 -49.467464 1.8658148 26
1.819766 -41.752655 1.1819642 85
2.6842222 -33.614006 0.63570136 82
4.9598536 -42.634567 0.40454322 57
0.093979359 -13.274652 0.020852314 352
0.56689781 -13.05928 -0.10494762 315
1.0259721 -12.933394 -0.22646244 372
1.4914583 -12.839998 -0.3475185 340
0.07446181 -11.357834 -0.39663279 333
0.51913995 -12.154955 -0.53969055 250
0.9736349 -12.273633 -0.66249406 389
1.4091727 -12.150102 -0.77383029 391
0.072250761 -11.322003 -0.8076154 415
0.48457894 -11.439418 -0.92524183 430
0.85187542 -10.810534 -0.97734475 410
1.2510552 -10.819791 -1.087154 417
0.060255695 -10.602257 -1.1443036 325
0.39531869 -9.4099379 -1.1063887 288
0.71518236 -9.1164951 -1.1617062 407
0.53553599 -4.6386952 -0.63881254 432
0.021850418 -4.383112 -0.63552886 502
0.17791843 -4.2706141 -0.66017181 487
0.32710502 -4.1978269 -0.69176829 584
0.47253305 -4.1055555 -0.72052133 495
0.018301666 -4.1021075 -0.74918532 754
0.16534892 -4.0366645 -0.77652854 705
0.30762559 -3.9567583 -0.80239272 614
0.45051843 -3.9142838 -0.83678067 687
0.013911526 -3.8763199 -0.85723579 781
0.15475845 -3.8271213 -0.88428265 779
0.2945047 -3.7965684 -0.91772902 762
0.43376917 -3.7687595 -0.95500845 788
0.010079679 -3.7109826 -0.96733379 809
0.14660445 -3.7055724 -1.0040951 802
0.2836979 -3.6738849 -1.0371448 780
0.41762167 -3.6228969 -1.0678066 785
0.010652701 -11.289797 3.4322565 278
0.46277633 -11.862556 3.4759915 346
0.91994685 -12.026951 3.3995867 211
3.85026 -33.772007 9.2350903 108
0.019215396 -13.096926 3.4432483 260
0.48768497 -12.557316 3.1682186 345
2.5887616 -34.07888 8.2683029 25
3.8552225 -34.026592 7.9499979 66
0 -0 0 7
1.4891028 -38.690926 8.2512903 25
2.5982928 -34.363163 7.0049582 33
3.8168204 -33.899197 6.6000829 163
0 -0 0 6
1.4842676 -38.565292 6.7634716 30
2.5942407 -34.550182 5.7296343 31
3.7766337 -33.754204 5.2944589 150
0 -0 0 7
1.5083332 -39.369381 5.4249148 21
2.5820346 -34.468193 4.4339805 21
3.7923164 -34.109852 4.0741901 42
0.064082243 -39.034031 4.316299 80
1.6041448 -42.062077 4.2533498 52
2.5908558 -34.830761 3.1970448 31
3.7357495 -33.708199 2.7882857 193
0 -0 0 17
1.7335002 -45.874374 2.9686799 34
2.5929861 -35.024666 1.9389473 22
3.7296097 -33.706532 1.5577394 140
0.071989901 -55.692356 2.1005495 26
0 -0 0 6
2.5940762 -35.206291 0.66550076 29
3.7147245 -33.733582 0.31986284 48
0.012524913 -13.273978 0.020850742 361
0.48709205 -13.071507 -0.10501987 314
0.94929403 -12.976341 -0.22710818 349
1.4127547 -12.849901 -0.34754536 411
0.0047771852 -11.375067 -0.3972261 305
0.4188498 -11.455073 -0.50849152 381
0.89524698 -12.237547 -0.66023737 349
1.3311099 -12.126774 -0.77180988 385
0.0027808526 -11.330213 -0.80818456 294
0.41300806 -11.404325 -0.92218101 314
0.78906232 -10.864232 -0.9817431 380
1.1677595 -10.672956 -1.0716602 321
-0.0048712264 -10.760509 -1.1613652 225
0.33928162 -9.4598274 -1.1119888 288
0.65830147 -9.1078491 -1.1600679 375
0.50351298 -4.6093917 -0.63433963 352
-0.0050476794 -4.3861322 -0.63595933 474
0.15206186 -4.2815018 -0.66169816 521
0.30056465 -4.1889281 -0.68998492 554
0.44711968 -4.1064191 -0.72017783 558
-0.0068555605 -4.0942731 -0.74774808 713
0.14091899 -4.0474172 -0.77841598 669
0.28418133 -3.9703033 -0.80477083 695
0.42511588 -3.9043329 -0.83408004 715
-0.0098485183 -3.8665681 -0.85507649 800
0.13103901 -3.8211823 -0.88270801 759
0.27168852 -3.8050919 -0.91936904 783
0.4096916 -3.7626736 -0.9528113 749
-0.012703908 -3.7148449 -0.96834272 810
0.1234456 -3.693861 -1.0006975 827
0.26067248 -3.6688354 -1.0352483 782
0.39632055 -3.6339779 -1.0703356 810
-0.05910724 -11.383411 3.4607618 273
0.3901695 -11.870927 3.4776776 387
0.84633613 -12.03525 3.4004006 398
3.6402771 -33.77005 9.2282734 96
-0.060676597 -12.996216 3.4168048 226
0.41068891 -12.56201 3.1687074 409
2.4912026 -35.692997 8.6560516 19
3.6269705 -33.868488 7.9077096 82
-0.082418919 -17.653166 3.9459932 75
1.3032701 -40.294659 8.5914383 25
2.4953394 -35.93285 7.3216815 21
3.5961797 -33.803844 6.5770979 160
-0 -0 0 8
1.3123407 -40.575108 7.1144013 26
2.4990742 -36.261345 6.0107484 27
3.5676856 -33.76004 5.291841 154
-0 -0 0 7
1.3005654 -40.429424 5.5697794 22
2.4866779 -36.173515 4.6513028 18
3.5412755 -33.735466 4.0268006 153
-0.17493592 -38.924358 4.3042092 83
1.3514352 -42.240177 4.2704411 61
2.4879024 -36.470417 3.3460815 26
3.5260496 -33.703724 2.7860734 148
-0 -0 0 8
1.5343668 -48.487404 3.1371093 15
2.4885685 -36.668686 2.0290759 29
3.5177391 -33.681091 1.5555369 151
-0 -0 0 6
0 -0 0 6
2.4968114 -36.981224 0.69874942 40
3.4971271 -33.654289 0.31890151 154
-0.069166966 -13.320805 0.02092457 283
0.40790406 -13.107232 -0.10528481 299
0.86985534 -12.984916 -0.22716053 373
1.3332636 -12.852363 -0.34738412 411
-0.065218933 -11.40986 -0.39844757 327
0.34424126 -11.315632 -0.50219852 313
0.81813967 -12.212921 -0.65862548 357
1.252667 -12.095998 -0.76934743 354
-0.066798836 -11.339991 -0.80889606 363
0.34212583 -11.376755 -0.91976464 286
0.72806615 -10.954333 -0.98946285 414
1.0967331 -10.626471 -1.0662968 373
-0.071597278 -10.866656 -1.1728468 322
0.28403401 -9.5560408 -1.1230725 234
0.6031242 -9.1226053 -1.1614541 402
0.47532234 -4.61338 -0.63447517 384
-0.031707991 -4.3513818 -0.6309371 482
0.12622346 -4.2971725 -0.66398782 535
0.27427498 -4.1818318 -0.68852586 546
0.42151225 -4.1051655 -0.71949077 539
-0.031969737 -4.0931702 -0.74756843 647
0.11596926 -4.0442796 -0.77766103 662
0.25917485 -3.9621913 -0.80278903 659
0.40095147 -3.9049213 -0.83366454 699
-0.033445977 -3.8517892 -0.85183758 790
0.1080289 -3.8374982 -0.88630724 821
0.24782951 -3.7989264 -0.91749465 780
0.3862994 -3.7622225 -0.95207894 740
-0.03551602 -3.7166324 -0.96884716 778
0.10035706 -3.6791105 -0.99651593 796
0.23859231 -3.6770897 -1.0371448 784
0.37322989 -3.6287036 -1.0680876 783
-0.13085012 -11.550258 3.5116639 262
0.31578511 -11.815536 3.4608176 317
0.76649565 -11.947045 3.3740871 345
3.4293904 -33.756226 9.2185717 106
-0.13985448 -12.943377 3.4030745 227
0.33293298 -12.539091 3.1623514 325
0.78993112 -12.41405 3.0093489 156
3.4027603 -33.728252 7.8699441 126
-0.18935385 -17.52449 3.9174163 156
0 -0 0 7
2.3489566 -37.119137 7.5603199 48
3.3776364 -33.714886 6.5556335 170
-0 -0 0 8
1.1029294 -42.09285 7.3791952 19
2.3327017 -37.171051 6.1590548 52
3.3547981 -33.72427 5.282908 164
-0 -0 0 6
1.0911597 -41.923111 5.7745266 15
2.3294129 -37.222572 4.784266 121
3.3296247 -33.710114 4.0212607 145
-0.41353557 -38.900688 4.3017912 103
1.0912517 -42.209881 4.2666206 49
2.3118162 -37.254295 3.4166348 93
3.3157644 -33.69001 2.7832055 131
-0 -0 0 10
1.1971349 -46.939663 3.0364387 18
2.2891698 -37.098839 2.0520627 76
3.3036842 -33.62748 1.5520954 163
-0 -0 0 5
1.1851562 -47.115253 1.332929 23
2.2788525 -37.142548 0.70152009 31
3.2892983 -33.662174 0.31877899 152
-0.15196542 -13.414124 0.021072226 441
0.32749692 -13.110488 -0.10529284 307
0.78907228 -12.972044 -0.22684638 365
1.2536016 -12.852342 -0.3471691 392
-0.1357366 -11.452215 -0.39994827 314
0.2741001 -11.288568 -0.50091332 458
0.74264157 -12.20874 -0.65814191 407
1.1744586 -12.062732 -0.7667588 340
-0.13622251 -11.326402 -0.80797112 365
0.27143061 -11.341771 -0.91678447 360
0.6842187 -11.346315 -1.0244706 414
1.0276664 -10.593384 -1.062324 405
-0.1385002 -10.883907 -1.1747783 264
0.22703294 -9.6271057 -1.1312395 203
0.54648459 -9.115242 -1.1600679 453
0.44643328 -4.6102924 -0.63366193 336
-0.058606222 -4.3659487 -0.63308948 507
0.099693447 -4.2909498 -0.66291934 534
0.24872765 -4.1854057 -0.6888501 560
0.39565322 -4.1008105 -0.71828848 542
-0.057139225 -4.0968313 -0.74828702 669
0.090996981 -4.0380425 -0.77633977 670
0.23474249 -3.9617503 -0.80239272 676
0.37764138 -3.9141235 -0.83511871 775
-0.057036076 -3.8485825 -0.85118979 781
0.084416091 -3.8351662 -0.88563234 798
0.22462974 -3.8023164 -0.91796327 781
0.36283505 -3.7606611 -0.9511025 728
-0.058380917 -3.7202148 -0.96985614 837
0.077658176 -3.673867 -0.99494785 819
0.2164771 -3.6861722 -1.0393124 774
0.35031122 -3.6242387 -1.0661206 831
-0.1984773 -11.363653 3.4552352 335
0.23320626 -11.327905 3.3175066 352
0.69278538 -11.944797 3.3721883 399
3.2168863 -33.720917 9.2033653 107
-0.28539294 -16.84507 4.4292855 172
0.3522214 -17.255369 4.3511667 269
0.71385658 -12.420604 3.009819 413
3.1907847 -33.696129 7.8577323 145
-0.30046597 -17.734743 3.9647536 125
0 -0 0 14
2.1260157 -37.217964 7.5776496 59
3.1681299 -33.707607 6.5503149 146
-0 -0 0 8
0 -0 0 9
2.1037443 -37.169891 6.1566076 57
3.1441357 -33.704868 5.2767467 146
-0 -0 0 8
0.8187753 -41.168346 5.6697659 17
2.0969527 -37.164867 4.775105 146
3.1181431 -33.680466 4.0153661 141
-0 -0 0 4
0.83115768 -42.161072 4.2610912 58
2.1799464 -38.998833 3.5753341 16
3.1050479 -33.667042 2.7796819 146
-0 -0 0 9
0 -0 0 10
2.0567853 -37.027451 2.0473773 18
3.0938084 -33.609318 1.5503519 133
-0 -0 0 4
0.89503294 -47.068668 1.3314307 21
2.2862003 -41.418583 0.78200299 84
3.0768561 -33.617992 0.31817582 163
-0.23390335 -13.391942 0.021039238 333
0.24746072 -13.134247 -0.10546947 335
0.70864373 -12.961666 -0.22658461 342
1.1701708 -12.810018 -0.3458254 359
-0.20835835 -11.582066 -0.40452009 179
0.2046846 -11.282046 -0.50055873 386
0.66689849 -12.198112 -0.65733594 363
1.0945311 -12.005108 -0.76265472 334
-0.20551817 -11.314382 -0.80718845 366
0.20135489 -11.316315 -0.91460967 327
0.61587852 -11.374168 -1.0266249 459
0.9548173 -10.513275 -1.0536833 393
-0.20623626 -10.933549 -1.1802509 276
0.16806179 -9.6342764 -1.1319395 201
0.49006456 -9.1095076 -1.1589335 403
0.41813663 -4.6129451 -0.63366193 328
-0.086323112 -4.4130011 -0.6399771 552
0.073109403 -4.2766585 -0.66062969 514
0.22256938 -4.1779852 -0.68739104 593
0.37163535 -4.1159158 -0.72052133 583
-0.081979528 -4.0816507 -0.74559212 625
0.06589631 -4.018887 -0.77256471 676
0.21089697 -3.971925 -0.80417621 702
0.35221022 -3.9007797 -0.83179486 722
-0.080608547 -3.8462079 -0.85075796 784
0.060975149 -3.8414574 -0.88698202 785
0.20103805 -3.798769 -0.9167918 776
0.34027648 -3.7686117 -0.95256722 771
-0.081122145 -3.7159166 -0.96884716 866
0.055244587 -3.6829605 -0.99729997 809
0.19279385 -3.6672444 -1.0336227 753
0.32711557 -3.6158061 -1.0630296 791
-0.26971233 -11.426306 3.4747233 307
0.16477665 -11.403972 3.3394248 328
0.62047708 -11.968047 3.3776135 422
3.0087178 -33.726562 9.1996946 107
-0.38859075 -16.836233 4.4275055 124
0.24572884 -17.214544 4.3404107 246
0.63803029 -12.432516 3.0117004 328
2.9815645 -33.687904 7.8514004 134
-0.40878326 -17.711102 3.9599547 82
0 -0 0 7
1.8971616 -37.221504 7.5758567 40
2.9584103 -33.694134 6.5440464 154
-0 -0 0 7
0 -0 0 7
1.8744915 -37.159435 6.1528554 64
2.9329808 -33.674309 5.2690458 145
-0 -0 0 7
0.51259804 -37.277718 5.1334128 37
1.8665334 -37.130474 4.7691245 122
2.9051001 -33.625755 4.0066428 164
-0 -0 0 0
0.57246006 -42.16637 4.2611918 60
0 -0 0 10
2.8979855 -33.6805 2.7792726 154
-0 -0 0 8
0.62584031 -47.315025 3.0599933 31
2.0587554 -41.679638 2.3038714 35
2.8875272 -33.62767 1.5503519 149
-0 -0 0 4
0.62496233 -48.529572 1.3726208 16
2.0417149 -41.629559 0.78573489 90
2.8691618 -33.6203 0.31802502 149
-0.31640071 -13.404251 0.02106123 316
0.1667515 -13.126518 -0.10539721 290
0.62846917 -12.952787 -0.22635771 339
1.089088 -12.788072 -0.34504601 437
-0.31179595 -12.922361 -0.45139012 324
0.13539545 -11.278096 -0.50033718 434
0.58768439 -12.11221 -0.65250027 361
1.018144 -11.979776 -0.7606343 366
-0.27559239 -11.339832 -0.80910951 318
0.13177609 -11.305377 -0.91364306 281
0.54684025 -11.39365 -1.028061 393
0.89129812 -10.530834 -1.0548751 449
-0.27505884 -11.001651 -1.1877621 267
0.11154895 -9.8655262 -1.1590071 199
0.43434933 -9.1163073 -1.1594378 247
0.38457102 -4.5532265 -0.62512273 301
-0.11355171 -4.4183245 -0.64083809 604
0.046834461 -4.2740622 -0.66017181 513
0.19627932 -4.1654725 -0.68512136 533
0.34612587 -4.1151738 -0.72000611 558
-0.10666148 -4.0673037 -0.74307686 668
0.04128601 -4.0241251 -0.77350843 699
0.18693541 -3.9819562 -0.80595982 680
0.32802293 -3.8999434 -0.83117169 705
-0.10415401 -3.8436887 -0.85032606 740
0.037327375 -3.8339646 -0.88518244 796
0.17690791 -3.7824514 -0.91257453 734
0.31763396 -3.7764266 -0.95403194 788
-0.10351522 -3.7008398 -0.96506363 812
0.032662433 -3.6851604 -0.99782264 806
0.16957423 -3.6529734 -1.0292877 764
0.30524564 -3.6215703 -1.0641536 838
-0.34180897 -11.491381 3.4950843 235
0.093747124 -11.27809 3.3023326 377
0.54839283 -12.001435 3.386023 361
2.7974069 -33.692455 9.1855354 97
-0.35629654 -12.193267 3.2070367 191
0.13984525 -17.1847 4.3325877 239
0.5640583 -12.487659 3.024163 241
2.775363 -33.71236 7.8529835 125
-0 -0 0 8
0 -0 0 11
1.6702747 -37.266708 7.5828285 37
2.749934 -33.691105 6.5400577 147
-0 -0 0 9
0 -0 0 8
1.6499429 -37.249092 6.1659079 44
2.7246304 -33.67099 5.2658114 108
-0 -0 0 6
0 -0 0 9
1.6376206 -37.117443 4.7660708 134
2.6985626 -33.640968 4.0064068 139
-0 -0 0 8
0.31363988 -42.158146 4.2600856 65
1.8193537 -41.732731 3.8236375 70
2.6861932 -33.634068 2.7740285 102
-0 -0 0 9
0.35360122 -49.869583 3.2250023 28
1.8039674 -41.714428 2.3051391 92
2.6812961 -33.646744 1.5504435 70
-0 -0 0 7
0.33754942 -50.070843 1.4161294 31
1.7908273 -41.748184 0.78775173 97
2.6677098 -33.69907 0.31860933 54
-0.40217975 -13.521004 0.021248154 323
0.086343467 -13.148293 -0.10556581 347
0.54910755 -12.959396 -0.22641008 352
1.0080824 -12.762624 -0.34418601 357
-0.39186633 -12.946177 -0.45229751 325
0.066226982 -11.284708 -0.50060308 385
0.49530393 -11.689587 -0.62955743 224
0.94101137 -11.940032 -0.75772989 355
-0.34707928 -11.400739 -0.8135919 293
0.062526159 -11.327901 -0.91541511 275
0.47746122 -11.409728 -1.029228 361
0.82767725 -10.549002 -1.0561663 362
-0.35722765 -11.470791 -1.2386249 304
0.048306864 -9.3426323 -1.0975217 239
0.19516625 -4.7031207 -0.5979926 224
0.35778561 -4.5703168 -0.6271559 371
-0.14050244 -4.4125991 -0.64012063 579
0.020536955 -4.2594452 -0.65788221 473
0.17079754 -4.16857 -0.68544555 556
0.32025677 -4.1093626 -0.71863198 579
-0.13174327 -4.0705056 -0.74379557 699
0.01662606 -4.0321593 -0.77501851 672
0.16245909 -3.9820485 -0.80576158 695
0.30393511 -3.8999319 -0.83075613 696
-0.1279311 -3.8488326 -0.85162163 728
0.013721234 -3.8117111 -0.88000858 784
0.15389319 -3.7883222 -0.91374594 823
0.29475766 -3.7821717 -0.95500845 810
-0.12608923 -3.6962664 -0.96405464 804
0.010042202 -3.6823959 -0.99703866 821
0.14831889 -3.6827996 -1.0374159 799
0.2833173 -3.6272023 -1.0652776 824
-0.44106716 -12.290318 3.7388327 229
0.024617391 -11.312043 3.3121676 326
0.47527558 -12.018039 3.3898208 419
2.5994949 -33.824451 9.2169991 42
-0.4326444 -12.234345 3.2184787 275
0.034610853 -17.290926 4.3592339 280
0.48859969 -12.520992 3.0314522 322
2.605659 -34.217308 7.966732 30
-0 -0 0 6
0.029250441 -17.699541 3.7718458 166
1.488613 -38.492455 7.8302312 27
2.5963402 -34.412231 6.6768231 29
-0 -0 0 10
0 -0 0 7
1.4268843 -37.403439 6.1898913 21
2.5760128 -34.463505 5.3871794 18
-0 -0 0 8
0 -0 0 0
1.4096158 -37.12085 4.7653079 145
2.5803807 -34.849236 4.1483397 30
-0 -0 0 9
0.054938294 -42.145348 4.258678 73
1.5747305 -42.04961 3.8517129 24
2.5681033 -34.848606 2.8728461 32
-0 -0 0 14
0.053784102 -56.349277 3.6439459 23
1.703602 -45.919437 2.5368824 40
2.5845835 -35.155952 1.6192267 24
-0 -0 0 7
0.033661928 -55.601761 1.5725222 25
0 -0 0 5
2.5793226 -35.337421 0.33394325 28
-1.1933466 -33.252556 0.052266657 146
0.0056774989 -13.176575 -0.10579061 266
0.46831295 -12.92755 -0.22579925 302
0.92837417 -12.749627 -0.3436754 312
-0.47158611 -12.951518 -0.4525767 301
-0.0030461 -11.397791 -0.50561088 281
0.41171148 -11.365094 -0.61193395 302
0.86469424 -11.903775 -0.75507808 343
-0.43828797 -11.979528 -0.85507196 347
-0.0070007551 -11.358971 -0.91791213 352
0.40804756 -11.429363 -1.030754 358
0.77032387 -10.656105 -1.0663962 327
-0.43175337 -11.579659 -1.2506431 295
-0.0089426553 -9.263299 -1.0881881 292
0.16598932 -4.6953068 -0.59685832 253
0.32788309 -4.5467329 -0.62363178 318
-0.16723689 -4.4027529 -0.63882917 566
-0.0056144837 -4.2713499 -0.65971386 485
0.14514777 -4.1675677 -0.68512136 525
0.29496565 -4.1102676 -0.7184602 577
-0.15705763 -4.0784674 -0.74541247 709
-0.0081131412 -4.0312033 -0.77482969 733
0.13758135 -3.9702358 -0.80318534 675
0.27817944 -3.8763561 -0.82535493 702
-0.15173681 -3.8528533 -0.85270125 718
-0.0096795997 -3.8165956 -0.88113332 773
0.13108107 -3.801826 -0.9167918 795
0.27064276 -3.7713346 -0.95183486 814
-0.14826071 -3.6828537 -0.96077555 782
-0.012533002 -3.6765969 -0.99547058 808
0.12460253 -3.6509309 -1.028204 750
0.26022953 -3.6173859 -1.0619056 819
-0.51755565 -12.31319 3.7466862 203
-0.044978671 -11.359007 3.3259366 323
0.40191093 -12.032272 3.3930762 430
2.5002918 -35.373207 9.6346664 20
-0.50618064 -12.19474 3.2088165 248
-0.071641266 -17.328629 4.3687677 233
0.41291296 -12.558726 3.0399172 237
2.4912 -35.597919 8.284461 30
-0 -0 0 8
-0.079448923 -17.720905 3.7764316 221
1.3108317 -40.297161 8.1955585 15
2.4789188 -35.781109 6.9393373 21
-0 -0 0 9
-0 -0 0 8
1.2919395 -40.366817 6.678863 27
2.4816539 -36.18697 5.6540976 26
-0 -0 0 9
-0 -0 0 8
1.1822617 -37.142677 4.7670889 155
2.4721498 -36.420876 4.3335352 26
-0 -0 0 7
-0.20372424 -42.157825 4.259985 84
1.4389323 -45.963234 4.2093101 55
2.4651542 -36.506413 3.0082085 26
-3.0877309 -74.388618 5.5197234 22
-0 -0 0 6
0 -0 0 10
2.4755561 -36.755886 1.6921855 35
-0 -0 0 5
-0 -0 0 6
0 -0 0 10
0.88749307 -13.280789 0.12545137 197
-1.3978198 -33.255596 0.052283935 170
-0.075446382 -13.224359 -0.10617597 330
0.38780963 -12.891204 -0.22511859 275
0.84859741 -12.732141 -0.34305727 261
-0.55291593 -12.992314 -0.45411229 384
-0.073346198 -11.454501 -0.50813693 204
0.34037742 -11.314507 -0.60908622 332
0.79223353 -11.917818 -0.75564629 349
-0.51067752 -11.950703 -0.85322207 423
-0.076819099 -11.376655 -0.91936189 281
0.33758688 -11.420701 -1.0297666 376
0.72330779 -10.93864 -1.0942057 372
-0.50098485 -11.535074 -1.2461363 293
-0.065569438 -9.2332754 -1.0846879 333
0.13682878 -4.6843381 -0.59534609 397
0.29684916 -4.5012054 -0.61712575 346
-0.19472848 -4.4125199 -0.64040762 587
-0.031734537 -4.2593765 -0.65788221 495
0.11991287 -4.1802163 -0.68706679 522
0.26980445 -4.1129832 -0.71863198 620
-0.18247463 -4.0862713 -0.74702936 731
-0.032775968 -4.0222397 -0.77313095 718
0.11318992 -3.9700258 -0.80298722 657
0.25541377 -3.8936071 -0.82867873 654
-0.17546344 -3.8538005 -0.85313314 797
-0.032987762 -3.803798 -0.87820899 762
0.10775103 -3.8025587 -0.9167918 799
0.24673545 -3.7613122 -0.94890535 784
-0.17112462 -3.6876745 -0.96228898 793
-0.03509194 -3.6764507 -0.99547058 796
0.10225236 -3.6535513 -1.0287459 796
0.23765084 -3.6131687 -1.0602195 812
-0.8565644 -17.778036 5.4110398 44
-0.11595429 -11.485191 3.3630288 354
0.33429104 -12.262541 3.4573679 326
2.3823631 -36.924854 10.053121 27
-0.82637787 -17.340389 4.5640454 104
-0.17834482 -17.364708 4.3780575 176
0.46098334 -17.241287 4.1725969 233
0.79943162 -12.526699 2.914057 115
-0 -0 0 6
-0.18913634 -17.810057 3.7956064 72
1.1042621 -41.847343 8.5092936 23
2.3428762 -37.119415 7.1959634 47
-0 -0 0 7
-0 -0 0 9
1.085987 -41.98851 6.9459457 18
2.3195195 -37.162025 5.8041134 56
-0 -0 0 9
-0 -0 0 7
0.95372492 -37.125435 4.7640352 149
2.2966464 -37.213406 4.426074 147
-3.4365938 -72.377808 8.0123882 17
-0.45976606 -41.916019 4.2357564 65
1.1562788 -45.947308 4.2071223 47
2.2854266 -37.243053 3.0676961 65
-0 -0 0 9
-0 -0 0 9
1.1657578 -46.975983 2.5942671 56
2.2618768 -36.964813 1.7011333 27
-0 -0 0 7
-0 -0 0 7
1.1523486 -47.098537 0.88815737 17
0.80641079 -13.292972 0.12551734 272
-1.602568 -33.261379 0.052307501 149
-0.15626842 -13.196651 -0.10595921 309
0.30803329 -12.865353 -0.22462992 320
0.76907033 -12.714159 -0.34243914 340
-0.63311106 -12.998659 -0.45446125 380
-0.14521916 -11.5807 -0.51376522 227
0.26982313 -11.269464 -0.60656089 397
0.71813089 -11.906516 -0.75463611 435
-0.58419079 -11.951329 -0.85350662 222
-0.14663635 -11.376966 -0.91944247 314
0.26589552 -11.353855 -1.0235729 331
0.65748626 -10.964724 -1.0963907 428
-0.56746995 -11.445392 -1.2368008 297
-0.12214363 -9.2267408 -1.0839878 372
0.10783196 -4.6741796 -0.59395975 395
0.26875162 -4.4950294 -0.61604136 374
-0.22189891 -4.4132185 -0.64069456 625
-0.057667576 -4.2442784 -0.65559256 507
0.094261289 -4.1808734 -0.68706679 559
0.24491329 -4.1204615 -0.71966255 613
-0.20764394 -4.0870399 -0.74738878 741
-0.057329107 -4.0131259 -0.77143222 686
0.088565104 -3.9588864 -0.80060917 611
0.23256294 -3.9126773 -0.83241808 726
-0.19950975 -3.8604522 -0.85486054 767
-0.056312375 -3.8025496 -0.87798399 802
0.08407177 -3.7875974 -0.91304308 762
0.22370939 -3.7637236 -0.94914949 738
-0.19420561 -3.6952519 -0.96455908 806
-0.05769496 -3.6790617 -0.99625462 806
0.079790607 -3.652185 -1.028204 790
0.21524794 -3.6107268 -1.0590956 806
-0.95011199 -17.486795 5.32407 75
-0.18795046 -11.578303 3.3905671 315
0.25916517 -12.270134 3.4589953 381
0.99981034 -17.131739 4.6625104 114
-0.62113047 -11.543464 3.0392222 160
-0.27719003 -16.894035 4.2597384 201
0.35686547 -17.325418 4.192349 164
0.71761972 -12.44579 2.8941565 242
-0 -0 0 9
-0 -0 0 8
0 -0 0 9
2.1168025 -37.163475 7.2018514 34
-0 -0 0 0
-0 -0 0 9
0 -0 0 9
2.0906215 -37.160759 5.8018031 53
-0 -0 0 7
-0 -0 0 9
0.72521162 -37.094887 4.7594547 137
2.0646305 -37.161358 4.418294 136
-0 -0 0 10
-0.71837866 -41.995972 4.2442012 60
0.87412125 -45.942585 4.2061195 54
0 -0 0 12
-0 -0 0 7
-0 -0 0 9
0.87676942 -46.943317 2.5921171 30
0 -0 0 9
-0 -0 0 6
-0 -0 0 5
0.94948423 -51.805096 0.97678274 19
0.72619212 -13.322631 0.12575296 348
-1.8077106 -33.270885 0.052338913 233
-0.23847888 -13.264429 -0.10651316 306
0.2286422 -12.842009 -0.22419362 324
0.69017547 -12.702668 -0.34200916 296
-0.70902544 -12.924677 -0.45201829 379
-0.23806401 -12.746241 -0.56552726 237
0.20018998 -11.24395 -0.60511011 405
0.64031094 -11.823003 -0.74907982 314
-0.65855318 -11.966443 -0.85485846 265
-0.21668783 -11.388807 -0.92048955 274
0.19581155 -11.331373 -1.0214186 305
0.59260154 -11.013265 -1.1008601 279
-0.63768685 -11.441694 -1.2368008 250
-0.17873631 -9.2248249 -1.0838712 356
0.079082526 -4.6707854 -0.59345567 491
0.24111252 -4.495605 -0.61590582 395
-0.24858342 -4.4048572 -0.63969016 618
-0.083903797 -4.2537255 -0.65711898 535
0.068444267 -4.1715064 -0.68544555 554
0.21967842 -4.1228704 -0.71983427 616
-0.23260573 -4.0837245 -0.74702936 704
-0.081952102 -4.0126982 -0.77143222 660
0.064303987 -3.9613156 -0.80100554 645
0.20797832 -3.9032862 -0.83013296 739
-0.22330604 -3.861105 -0.85529244 731
-0.079663731 -3.8031068 -0.87820899 765
0.060923584 -3.7938743 -0.91444886 750
0.19957945 -3.7456579 -0.94426709 688
-0.21698904 -3.6959229 -0.96506363 854
-0.080036543 -3.6680231 -0.99337977 815
0.057425078 -3.6554933 -1.0290167 784
0.19324256 -3.6148543 -1.0599385 804
-1.0060351 -16.631626 5.0654869 86
-0.25941932 -11.596121 3.3961871 299
0.18508346 -12.352335 3.4817824 429
0.86529177 -16.574749 4.5093923 82
-0.69507414 -11.591567 3.0529525 195
-0.38045126 -16.874569 4.2553382 203
0.24983528 -17.277718 4.180357 267
0.64364535 -12.496655 2.9050114 377
-0.79011774 -13.176583 2.9506056 119
-0 -0 0 8
0 -0 0 7
1.8913223 -37.226753 7.2117295 50
-0 -0 0 8
-0 -0 0 7
0 -0 0 8
1.8628646 -37.17881 5.8027272 53
-0 -0 0 11
-0 -0 0 7
0.49709585 -37.061943 4.7547469 154
1.8351036 -37.14357 4.4147573 133
-0 -0 0 13
-0 -0 0 9
0.59238607 -45.961025 4.207396 56
0 -0 0 12
-0 -0 0 6
-0 -0 0 10
0.5929333 -47.284271 2.6106939 23
2.0346332 -41.624363 1.914274 66
-0 -0 0 11
-0 -0 0 6
0.6310966 -51.768955 0.97600991 29
0.64462554 -13.330832 0.12579066 350
-2.0124269 -33.26915 0.052354623 338
-0.32157519 -13.333694 -0.10708318 287
0.14996912 -12.854167 -0.22438559 330
0.61217225 -12.705666 -0.34198228 343
-0.78935111 -12.937042 -0.4526116 384
-0.31973875 -12.884359 -0.57173163 360
0.13122958 -11.247962 -0.60527134 369
0.56067175 -11.679174 -0.73973531 314
-0.73367131 -11.990054 -0.85685062 261
-0.28759226 -11.428118 -0.923792 302
0.12598023 -11.305471 -1.0189949 315
0.52340376 -10.9829 -1.0974833 293
-0.71377569 -11.532829 -1.247102 223
-0.23467678 -9.1977406 -1.0808378 190
0.050614372 -4.6890383 -0.59572411 586
0.21328852 -4.4920511 -0.61522812 311
-0.2752355 -4.3973227 -0.63882917 556
-0.110207 -4.2610345 -0.6583401 579
0.042999111 -4.1866484 -0.68787736 633
0.19423769 -4.1211886 -0.71931905 636
-0.25834027 -4.09302 -0.74900568 716
-0.10665024 -4.0150647 -0.77199841 684
0.040263772 -3.9880989 -0.80635613 677
0.1839322 -3.9025345 -0.82971746 755
-0.24742964 -3.866483 -0.85680389 800
-0.10344616 -3.8191044 -0.88203311 787
0.037605084 -3.7902882 -0.91351169 748
0.17654711 -3.7458432 -0.94402289 710
-0.2393495 -3.6896935 -0.9638024 857
-0.10246067 -3.6645682 -0.99259573 814
0.034920603 -3.6480765 -1.0268493 762
0.17110395 -3.6169307 -1.0602195 839
-1.088596 -16.333019 4.9764814 53
-0.33469695 -11.739168 3.4386182 319
0.11052211 -12.492795 3.5211167 368
0.57156003 -12.410468 3.3754237 367
-1.1835771 -17.899326 4.7160954 125
-0.48798826 -17.011488 4.2905402 161
0.14803116 -17.785299 4.302866 210
0.56739658 -12.510099 2.9072728 164
-0.87198311 -13.187067 2.9540958 29
-0 -0 0 9
0 -0 0 10
1.6636121 -37.25433 7.2149582 33
-0 -0 0 8
-0 -0 0 10
0 -0 0 7
1.6438599 -37.39782 5.8352256 34
-0 -0 0 8
-0 -0 0 7
0.26936114 -37.020653 4.7491484 148
1.6061734 -37.131313 4.412046 132
-0 -0 0 13
-0 -0 0 8
0.31056514 -45.993671 4.2101307 43
1.790746 -41.735657 3.4344528 100
-0 -0 0 5
-0 -0 0 7
0.32431147 -50.647835 2.796243 32
1.7841398 -41.751835 1.9195968 84
-0 -0 0 10
-0 -0 0 5
0.30518615 -50.409122 0.95031953 25
0.55931699 -13.251614 0.12500842 284
-2.2150617 -33.234226 0.052320067 437
-0.40441144 -13.365453 -0.10735615 298
0.071520388 -12.931833 -0.22572944 263
0.53331864 -12.688209 -0.34141791 315
-0.86442947 -12.868137 -0.45037803 254
-0.39909878 -12.892139 -0.57217479 307
0.062288225 -11.262535 -0.60602355 404
0.48140284 -11.500916 -0.72824401 317
-0.811584 -12.050015 -0.86147541 255
-0.36687806 -11.719039 -0.94747275 246
0.056588847 -11.302049 -1.018636 349
0.44969022 -10.833792 -1.0822873 295
-0.79242426 -11.644289 -1.2596568 217
-0.15092777 -4.7678108 -0.56036961 290
0.021809675 -4.6823168 -0.59484196 537
0.18514895 -4.4794164 -0.61333054 400
-0.30160084 -4.3866653 -0.63753778 557
-0.13676113 -4.273119 -0.66032445 521
0.017378863 -4.2036085 -0.69063342 623
0.16935031 -4.1321464 -0.72103667 631
-0.28358567 -4.0933204 -0.74936497 732
-0.13125211 -4.0133533 -0.7718097 669
0.015765334 -3.9814095 -0.80496895 709
0.15990311 -3.9016347 -0.82930195 699
-0.27128595 -3.8668401 -0.85723579 797
-0.12716903 -3.8271625 -0.8840577 795
0.014332887 -3.7865591 -0.91257453 736
0.1538377 -3.7536385 -0.94573176 741
-0.26198453 -3.6881554 -0.9638024 861
-0.12497701 -3.6648355 -0.9928571 839
0.012486153 -3.6337831 -1.0227852 762
0.14890766 -3.6179125 -1.0602195 847
-1.186639 -16.296452 4.9674644 162
-0.41356766 -11.934475 3.4965048 361
0.034324881 -12.662639 3.5688608 289
0.49559247 -12.418563 3.3767345 452
-1.2936618 -17.895586 4.7171125 98
-0.6066699 -17.41906 4.3941917 135
0.03877015 -17.726583 4.2885222 234
0.48768675 -12.438397 2.8898597 315
-0.9564696 -13.231111 2.9652212 35
-0 -0 0 9
0.032942396 -17.922451 3.6431124 143
1.4870152 -38.614765 7.4765224 25
-0 -0 0 7
-0 -0 0 6
0 -0 0 9
