# .PCD v0.7 - Point Cloud Data file format
VERSION 0.7
FIELDS x y z intensity
SIZE 4 4 4 4
TYPE F F F F
COUNT 1 1 1 1
WIDTH 1335
HEIGHT 1
VIEWPOINT 0 0 0 1 0 0 0
POINTS 1335
DATA ascii
-1.0579387 -37.36657 5.3960867 63
0.15216513 -19.066669 2.5647821 82
0.79480571 -17.964802 2.2452416 115
1.4848578 -18.401814 2.1292257 60
-1.066957 -37.362389 4.0090318 63
0.14313331 -19.149519 1.8685687 64
0.81742007 -18.638018 1.6413701 61
1.3277673 -16.584969 1.3033059 43
-1.0819426 -37.339001 2.6422317 109
0.13359866 -18.477987 1.1301917 102
0.77161872 -17.692461 0.91694671 121
1.3253293 -16.671562 0.70475119 234
-0.57849592 -19.761986 0.67588955 76
0.12934309 -19.136736 0.47238132 68
0.78523898 -18.261013 0.27787852 35
1.3985828 -17.702538 0.1035179 53
-0.87128466 -29.291985 -0.060353272 20
0.14511159 -22.638988 -0.26475117 30
0.73902577 -17.047665 -0.38424927 63
1.2311817 -15.639285 -0.47957578 166
-0.47717157 -15.719065 -0.60661769 187
0.09346579 -15.692695 -0.75241494 222
0.63307333 -15.052867 -0.86528039 151
1.0866126 -13.849213 -0.93194515 136
-0.37757498 -12.296607 -0.9232949 193
0.060749032 -11.291579 -0.95434695 273
0.44938469 -10.734308 -1.0091475 234
0.83405298 -10.682863 -1.1128078 232
-0.32684937 -10.483564 -1.172599 164
0.048071623 -9.7582951 -1.1841813 19
0.44235039 -10.723018 -1.4071964 38
0.67034364 -8.5956783 -1.2152414 49
-0.25112581 -7.8523521 -1.1699368 38
0.033440515 -7.4479594 -1.1804523 37
0.28625879 -7.0045075 -1.1801758 93
0.51589733 -6.6436667 -1.1894999 86
-0.20224988 -6.1954541 -1.1580499 119
0.023554383 -5.9649048 -1.1720068 61
0.23611009 -5.7997408 -1.1985773 25
0.43193859 -5.5586848 -1.2089168 34
-0.1757329 -5.2346759 -1.1804458 18
0.016230695 -4.9138546 -1.1558888 17
0.20550635 -5.0719576 -1.2468145 18
0.36986324 -4.7533832 -1.222554 23
-0.1579095 -4.5798025 -1.2155478 27
0.012618184 -4.4558811 -1.2279449 28
0.17396253 -4.3345904 -1.2406476 69
0.32581374 -4.1740832 -1.2451103 56
-1.5241739 -37.429325 11.252897 20
-0.11876228 -37.208771 10.75459 27
0.64708167 -18.93626 5.2716527 83
1.3369746 -18.687775 5.0222754 75
-1.5136968 -37.380661 9.7065735 46
-0.065496035 -19.158298 4.7646542 72
0.63743269 -18.895445 4.5114141 91
1.3109505 -18.634705 4.2674861 67
-1.517297 -37.421101 8.2418613 47
-0.13707885 -37.244831 7.8094015 54
0.62881631 -19.10511 3.81791 76
1.2554163 -18.043232 3.4342234 140
-1.5187066 -37.327114 6.7897725 44
-0.074271046 -18.923382 3.2465565 107
0.62072867 -19.03113 3.0816221 87
1.2377968 -17.998676 2.7461901 128
-1.5212222 -37.469444 5.4132309 73
-0.083814099 -19.53092 2.627172 82
0.57238865 -17.913694 2.2378078 136
1.3150183 -19.239281 2.2240922 54
-1.5268314 -37.382244 4.0128708 60
-0.11089425 -23.114956 2.2554703 53
0.58713263 -18.598854 1.6371632 83
1.193658 -17.626511 1.3838985 37
-0.77562708 -18.797001 1.3307116 44
-0.095157549 -18.873491 1.1543669 96
0.56457722 -18.024004 0.93370026 110
1.1238573 -16.734421 0.70677209 25
-0.7826159 -18.830736 0.64431936 49
-0.10861222 -19.700701 0.48629883 64
0.67011476 -21.819191 0.33187333 23
1.1628809 -17.442984 0.10190899 76
-1.0930996 -26.005983 -0.053606391 50
-0.1351061 -23.047029 -0.2695221 31
0.54206043 -17.451159 -0.39316434 55
1.0375819 -15.62928 -0.47884244 175
-0.67105454 -15.735986 -0.60754275 186
-0.099190451 -15.704646 -0.75298965 215
0.44759086 -15.035552 -0.8639043 176
0.91973954 -13.909292 -0.93515807 107
-0.5222767 -12.147584 -0.91251802 213
-0.077408552 -11.231689 -0.94929391 216
0.32009685 -10.82261 -1.0170031 166
0.70367795 -10.704204 -1.1140473 195
-0.45288479 -10.419191 -1.1659327 196
-0.071593784 -9.7462378 -1.1827357 26
0.31004018 -10.703852 -1.4040762 29
0.56169724 -8.555829 -1.208542 45
-0.34956709 -7.8961091 -1.1770067 28
-0.057775456 -7.4241056 -1.1766953 38
0.20163347 -7.0548077 -1.1881444 93
0.43818036 -6.7084379 -1.2000436 96
-0.28143951 -6.2632103 -1.1712722 114
-0.049743947 -5.9765191 -1.1743203 65
0.16358496 -5.7552123 -1.1888707 32
0.35833746 -5.4816494 -1.1911168 30
-0.24317509 -5.3022895 -1.1962759 14
-0.046061609 -5.1356168 -1.208096 30
0.14094806 -4.9925547 -1.2267776 21
0.30846623 -4.7111673 -1.2106314 18
-0.20976357 -4.4848304 -1.1909344 37
-0.042063285 -4.4557009 -1.2279449 33
0.1185092 -4.2556682 -1.2175503 52
0.27682969 -4.2121997 -1.2553723 41
-1.9809405 -37.361897 11.239087 27
-0.57732308 -37.331306 10.791243 32
0.41693294 -19.046797 5.3006015 84
1.1212499 -18.934183 5.0844159 105
-1.9771999 -37.452065 9.7306833 31
-0.58361489 -37.192356 9.2507954 54
0.41577303 -19.380299 4.6256094 51
1.0855638 -18.707785 4.2808485 86
-1.9776341 -37.423069 8.2470188 57
-0.59524399 -37.310806 7.8241773 77
0.39092147 -18.946676 3.7850056 98
1.0204251 -17.821875 3.3894534 184
-1.4206709 -26.812527 4.879981 28
-0.60415751 -37.298115 6.399775 60
0.38473219 -18.918879 3.0624506 118
1.0261931 -18.178333 2.7714717 73
-1.9834249 -37.495396 5.4200888 33
-0.32367921 -19.540312 2.628772 60
0.35485902 -18.038424 2.2526755 150
1.0134673 -18.087542 2.0893543 62
-1.9898863 -37.444096 4.0218291 32
-0.63733184 -37.334229 3.6434224 58
0.35516346 -18.413433 1.6203358 86
1.0090286 -18.213194 1.4288806 65
-1.5920523 -29.723026 2.1054313 35
-0.33442971 -19.314009 1.1814724 113
0.34152699 -17.933722 0.92873621 147
1.0214891 -18.626457 0.786093 20
-1.016219 -18.867615 0.64595932 46
-0.66546905 -37.413689 0.92366433 72
0.40429944 -21.933739 0.33351505 25
0.96176577 -17.695581 0.10330804 173
-1.3919686 -25.61916 -0.052840263 24
-0.49059042 -27.050703 -0.31638941 32
0.33237278 -17.696392 -0.39856741 55
0.8470037 -15.66479 -0.47957578 173
-0.86805594 -15.798404 -0.61031795 188
-0.29212594 -15.714231 -0.7535643 185
0.26179081 -14.968042 -0.85977602 205
0.74512202 -13.847797 -0.93033874 115
-0.6792351 -12.283638 -0.9232949 193
-0.21225409 -11.074476 -0.93615603 212
0.18622951 -10.765995 -1.011392 213
0.57163119 -10.700114 -1.1128078 254
-0.58203828 -10.436664 -1.1685992 125
-0.18978763 -9.6731625 -1.1740621 24
0.17826709 -10.683059 -1.4009562 26
0.46299034 -8.6807346 -1.2252904 48
-0.44241571 -7.8201241 -1.1664017 22
-0.14816332 -7.3872886 -1.1710601 30
0.11388757 -6.9857593 -1.1761916 72
0.35394871 -6.6779199 -1.1937174 104
-0.35490713 -6.2004018 -1.1602536 117
-0.12356625 -5.9990034 -1.1789476 75
0.095223986 -5.8977928 -1.2179908 38
0.29601288 -5.5793223 -1.2114596 32
-0.30550489 -5.2521596 -1.1857225 28
-0.10858387 -5.1113081 -1.2026006 34
0.078183979 -4.9006915 -1.2038784 24
0.24877855 -4.6797752 -1.2016895 35
-0.26888782 -4.5513902 -1.2093945 44
-0.095231459 -4.3854527 -1.2088163 38
0.066456296 -4.2683382 -1.22085 44
0.22205168 -4.1578507 -1.2382691 51
-2.4430258 -37.392117 11.25635 16
-1.0353922 -37.321411 10.791243 28
0.19105978 -19.871264 5.5289764 37
0.89913374 -19.166502 5.1434503 63
-2.4313629 -37.343845 9.7095871 36
-1.0448622 -37.357002 9.2942371 54
0.17748713 -19.337254 4.6144681 110
0.89117461 -19.491003 4.4572315 73
-2.4344378 -37.360901 8.2392826 43
-1.0533916 -37.312431 7.8266392 74
0.1580921 -18.914747 3.7779548 120
0.81117624 -18.045052 3.4297464 138
-1.6064986 -24.601717 4.4808564 31
-1.0624905 -37.311535 6.4038329 46
0.15129811 -18.768183 3.037528 111
0.79937702 -18.106594 2.7588308 83
-1.6272385 -24.952814 3.6096303 36
-1.0791425 -37.414341 5.03478 49
0.14985812 -20.256163 2.529211 49
0.84298748 -19.277668 2.2254672 43
-1.6387105 -25.034529 2.6908884 29
-1.0992864 -37.454918 3.6562414 50
0.12934326 -18.440313 1.6224393 84
0.79266047 -18.391535 1.4420002 100
-1.649801 -25.043011 1.775223 32
-0.57425165 -19.40423 1.1873331 28
0.12272497 -18.128302 0.93866426 175
0.78825092 -18.529783 0.78154594 55
-1.658686 -25.064503 0.85875076 36
-0.96807808 -32.198643 0.79514933 21
0.11648624 -18.913456 0.28754652 54
1.0404757 -24.743713 0.14437009 47
-1.6599647 -24.905691 -0.051406857 31
-0.7816509 -25.69936 -0.30067343 23
0.11370238 -17.471203 -0.39343452 105
0.65570998 -15.697972 -0.48030913 174
-1.0634708 -15.810491 -0.61124301 209
-0.48531157 -15.721443 -0.75413901 225
0.077215277 -14.802406 -0.85014325 170
0.574139 -13.831973 -0.92873222 124
-0.81216353 -12.011718 -0.90353727 207
-0.35001811 -11.130795 -0.94120908 250
0.053980112 -10.743575 -1.0091475 233
0.43782911 -10.646694 -1.1066099 126
-0.72870111 -10.702393 -1.199264 88
-0.3096174 -9.7058258 -1.1783988 26
0.046893541 -10.624951 -1.3931557 50
0.3520447 -8.5789099 -1.2102168 39
-0.53916311 -7.8259473 -1.1681693 28
-0.23803943 -7.3612223 -1.1673031 28
0.028248349 -7.0102973 -1.1801758 84
0.27101281 -6.6581535 -1.1894999 119
-0.43096885 -6.1955795 -1.1602536 127
-0.19640009 -5.9734983 -1.1743203 71
0.021840623 -5.6399736 -1.1646038 29
0.22704615 -5.570817 -1.2089168 37
-0.36581826 -5.1896281 -1.1725307 24
-0.16855955 -5.0278683 -1.1833663 33
0.018253522 -4.9595494 -1.2181904 23
0.19655208 -4.8102326 -1.2344764 26
-0.32389405 -4.5361791 -1.2063179 45
-0.15061283 -4.430202 -1.2215686 36
0.014072216 -4.2688322 -1.22085 58
0.17384619 -4.2292171 -1.2587929 42
-2.9079304 -37.439529 11.280516 46
-1.5011437 -37.501717 10.847886 19
-0.099070273 -37.282726 10.373096 48
0.6795035 -19.627861 5.2646246 84
-2.9020019 -37.473328 9.7517786 34
-1.5027429 -37.329731 9.2913408 54
-0.11503518 -37.184822 8.8731203 46
0.62807924 -18.787252 4.2942109 74
-1.7119747 -22.091572 4.8761697 73
-1.5135705 -37.35537 7.8389525 68
-0.074907921 -19.138844 3.8226109 97
0.60583889 -18.548536 3.5237632 143
-1.7693728 -22.790934 4.1546898 52
-1.5241342 -37.390224 6.4200659 56
-0.079875708 -18.970005 3.0701194 82
0.57636553 -18.091326 2.7552192 126
-1.7808938 -22.965303 3.3250318 45
-1.5357488 -37.338863 5.0267811 62
-0.092981964 -19.077642 2.3820229 87
0.59849066 -19.036345 2.1965947 50
-1.7903328 -23.014071 2.4758904 39
-1.5613174 -37.498272 3.6620684 53
-0.099660076 -18.954519 1.6676629 92
0.56027675 -18.184639 1.425132 121
-1.8057849 -23.087629 1.6380595 36
-1.200762 -28.670244 1.7550845 31
-0.10099922 -18.356133 0.95045376 127
0.56080258 -18.538061 0.78154594 71
-1.8009272 -22.937971 0.78659034 54
-1.2220089 -28.852337 0.71282864 46
-0.11693998 -19.129433 0.29082999 43
0.73532605 -24.70664 0.14409029 33
-1.8067276 -22.873711 -0.047254935 40
-1.0560074 -24.728771 -0.28944772 59
-0.10886434 -18.886898 -0.42531267 56
0.46337581 -15.716826 -0.48067582 158
-1.2555068 -15.772343 -0.61031795 197
-0.67871815 -15.726279 -0.75471371 219
-0.10443884 -14.802239 -0.85014325 158
0.40155849 -13.742232 -0.92230636 143
-0.95759726 -11.97699 -0.90174109 212
-0.48292652 -11.042041 -0.9341349 245
-0.078037314 -10.767323 -1.011392 214
0.30714485 -10.651265 -1.1066099 164
-0.84085977 -10.454899 -1.172599 152
-0.42764768 -9.6774931 -1.1755077 22
-0.083213985 -10.589033 -1.3884754 32
0.24571736 -8.5469503 -1.2051922 42
-0.63708103 -7.842402 -1.1717043 43
-0.32412785 -7.2630248 -1.1522756 36
-0.057488311 -6.9746175 -1.1741995 73
0.1886155 -6.637361 -1.1852825 110
-0.50792861 -6.201581 -1.1624573 101
-0.26331347 -5.829484 -1.1465578 49
-0.048556689 -5.7808371 -1.193724 33
0.15466166 -5.4325109 -1.1784025 28
-0.43817288 -5.2897463 -1.1962759 21
-0.23238504 -5.0720968 -1.1943573 25
-0.041307602 -4.8079085 -1.1809793 18
0.13551626 -4.7425671 -1.2165927 18
-0.37856758 -4.5203042 -1.2032411 44
-0.20443197 -4.4164643 -1.2183807 24
-0.038313981 -4.2686834 -1.22085 63
0.11895201 -4.1275554 -1.2280072 47
-3.3795176 -37.538376 11.321943 47
-1.9618368 -37.491982 10.851218 22
-0.55657923 -37.278706 10.373096 45
0.44169444 -19.773777 5.301909 105
-3.3689108 -37.515877 9.7728739 50
-1.9643902 -37.378258 9.3087187 63
-0.57295561 -37.285648 8.8981876 61
0.39327815 -18.594713 4.2487788 109
-1.8948436 -21.088404 4.6595268 33
-1.9755813 -37.404354 7.8537283 68
-0.31052718 -19.183548 3.8320122 52
0.40219793 -19.733265 3.7476125 67
-1.912407 -21.250586 3.8778775 51
-1.4219651 -26.798227 4.604023 25
-0.61606407 -37.373577 6.049335 70
0.35477817 -18.120758 2.7588308 114
-1.9126251 -21.273806 3.0832944 58
-1.4208618 -26.593225 3.5822167 23
-0.32729113 -19.086971 2.3835094 83
0.3607299 -18.827717 2.1718469 80
-1.9290613 -21.397995 2.304404 51
-2.0207181 -37.464363 3.660903 29
-0.33644441 -19.190908 1.6886971 84
0.33663777 -18.166224 1.4232577 121
-1.9388834 -21.40667 1.5203698 52
-1.5233387 -28.115147 1.7221184 62
-0.33178738 -18.665045 0.96658683 134
0.34404188 -19.142918 0.80680728 47
-1.9509463 -21.468946 0.73698002 55
-1.5373533 -28.128439 0.69535774 59
-0.37108985 -20.182259 0.3068825 69
0.32782871 -18.750818 0.10932395 75
-1.9562917 -21.415789 -0.044289272 39
-1.3145747 -23.899237 -0.27990586 61
-0.33218932 -18.416336 -0.41477671 78
0.27067763 -15.733322 -0.48104247 163
-1.4522575 -15.791571 -0.61170554 174
-0.87430763 -15.764638 -0.75701249 244
-0.2865403 -14.823799 -0.85151941 177
0.23349839 -13.78204 -0.92471606 139
-1.1067013 -11.988169 -0.90353727 257
-0.61370987 -10.951712 -0.9270606 183
-0.20969667 -10.741664 -1.0091475 174
0.17661192 -10.666166 -1.1078495 176
-0.96689039 -10.420043 -1.1699325 194
-0.54099798 -9.5763674 -1.1639429 28
-0.21458843 -10.658589 -1.397836 22
0.14061894 -8.5374413 -1.2035174 36
-0.72774076 -7.7749062 -1.1628668 36
-0.42131582 -7.4004955 -1.174817 48
-0.14452969 -7.0443726 -1.1861523 88
0.10715067 -6.6391759 -1.1852825 112
-0.58842164 -6.2418561 -1.1712722 91
-0.33955976 -5.908102 -1.1627526 49
-0.11779241 -5.6975589 -1.1767373 31
0.08988335 -5.551259 -1.2038311 38
-0.49972475 -5.2490096 -1.1883608 25
-0.29189885 -5.0222173 -1.1833663 40
-0.10297918 -4.9352016 -1.2124656 23
0.077686258 -4.767118 -1.222554 20
-0.43179059 -4.4922266 -1.1970878 45
-0.25658327 -4.3789759 -1.2088163 34
-0.091184653 -4.2909617 -1.2274492 65
0.068862282 -4.1632061 -1.2382691 50
-3.8481133 -37.574112 11.34611 55
-2.4180553 -37.407562 10.834558 24
-1.0162053 -37.349964 10.395612 44
0.37429005 -37.197773 9.9717932 34
-1.9079248 -18.671337 4.8696108 79
-2.4274538 -37.421059 9.3260956 57
-1.0307873 -37.287479 8.9009733 58
0.16558191 -18.65663 4.2621412 117
-2.0116439 -19.676167 4.3526173 54
-1.5245553 -23.40732 4.9183531 62
-1.0612216 -37.281269 7.4491653 55
0.16134819 -19.901762 3.7789516 94
-2.0287457 -19.816093 3.6203773 53
-1.6195451 -24.772419 4.2590766 30
-1.074649 -37.363205 6.049335 72
0.13368165 -18.301693 2.785918 115
-2.0345557 -19.889978 2.8861327 85
-1.6222605 -24.675024 3.3262584 28
-1.1005121 -37.399296 4.6716189 62
0.12604621 -18.306215 2.1113524 91
-2.0564096 -20.055214 2.1623516 61
-1.6560191 -24.995235 2.4442599 25
-1.1140409 -37.370975 3.2894008 32
0.11435861 -18.276653 1.4316919 126
-2.0555401 -19.964315 1.4196138 89
-1.6433281 -24.712141 1.5147976 33
-0.57485175 -19.126732 0.99078643 97
0.10841973 -19.025806 0.80175501 82
-2.0676658 -20.023769 0.68818963 87
-1.669986 -24.93553 0.61688662 39
-0.61652255 -20.104225 0.30578801 74
0.14258938 -27.369164 0.15954977 34
-2.0505545 -19.766884 -0.040928189 52
-1.5908303 -23.629892 -0.27695912 19
-0.58106428 -19.166332 -0.43179637 34
0.077171199 -15.651498 -0.47847575 162
-1.6521578 -15.832191 -0.61401826 187
-1.0676981 -15.752722 -0.75701249 204
-0.46729401 -14.783244 -0.84945524 167
0.063906781 -13.688084 -0.91829026 129
-1.2549773 -11.985586 -0.90443534 295
-0.74887347 -10.955286 -0.9280712 217
-0.34111786 -10.72634 -1.0080254 123
0.04575948 -10.679466 -1.109089 214
-1.0946876 -10.407393 -1.1699325 131
-0.65683836 -9.5452385 -1.1610518 33
-0 -0 -0 12
0.035342038 -8.4196997 -1.1867689 30
-0.81809175 -7.7181783 -1.1557969 55
-0.49899852 -7.2055879 -1.1447617 36
-0.22708505 -6.9237971 -1.1662308 77
0.025715366 -6.651804 -1.1873912 97
-0.65246326 -6.1168718 -1.1492351 102
-0.40875638 -5.8565049 -1.1534984 42
-0.1923463 -5.8366327 -1.2058574 25
0.02157029 -5.5050344 -1.1936597 31
-0.55658615 -5.172647 -1.1725307 29
-0.35350719 -5.0182571 -1.1833663 40
-0.16623646 -5.0150967 -1.2325025 12
0.01946111 -4.8374557 -1.2404377 22
-0.49314144 -4.5442457 -1.2124711 55
-0.30457208 -4.2947187 -1.1864997 40
-0.14190122 -4.2318649 -1.2109512 42
0.017473651 -4.0947256 -1.2177453 63
-4.3023601 -37.466972 11.328848 35
-2.8831148 -37.455532 10.857882 41
-1.4753829 -37.357784 10.402045 35
-0.082135193 -37.164795 9.9624729 37
-2.1078126 -18.392641 4.8033099 49
-2.8954487 -37.504559 9.3550568 49
-1.4943385 -37.423641 8.9371815 57
-0.063773476 -18.774242 4.288866 49
-2.1194544 -18.48567 4.0947099 70
-1.7590733 -22.707699 4.7755246 43
-1.5239109 -37.394775 7.475019 63
-0.15521365 -37.26783 7.0762534 45
-2.1357706 -18.605022 3.4036484 65
-1.7786356 -22.887598 3.9384789 35
-1.5355014 -37.406384 6.0589209 74
-0.093511373 -18.823936 2.8653738 118
-2.1295996 -18.565567 2.6975431 76
-1.794403 -22.981447 3.1006949 36
-1.560865 -37.418667 4.6760793 54
-0.099443465 -18.461355 2.1292257 98
-2.1470251 -18.67717 2.0164599 69
-1.7960638 -22.853662 2.2368245 37
-1.5740647 -37.39032 3.292556 67
-0.11007657 -18.300608 1.4335661 110
-2.1714106 -18.819815 1.3400252 90
-1.8156136 -23.030375 1.4129685 48
-0.81662059 -19.285862 0.99947339 68
-0.12593125 -19.157585 0.80731255 77
-2.1699045 -18.757879 0.64554936 94
-1.8127244 -22.856247 0.56595445 50
-1.2282677 -28.594326 0.43512008 33
-0.16031834 -22.70105 0.13233829 40
-2.1600509 -18.595928 -0.038555659 66
-1.8073163 -22.687572 -0.26615441 40
-0.86830932 -20.380341 -0.45935214 34
-0.1154309 -15.723231 -0.48067582 183
-1.8463187 -15.810724 -0.61401826 172
-1.2637995 -15.774277 -0.75873655 229
-0.64762115 -14.752459 -0.84807914 168
-0.10407187 -13.687838 -0.91829026 113
-1.3936118 -11.897972 -0.89904684 221
-0.89191151 -11.052538 -0.93716663 234
-0.47272086 -10.721346 -1.0080254 97
-0.085583441 -10.715031 -1.1128078 194
-1.2042114 -10.239202 -1.1526002 67
-0.76332414 -9.4058495 -1.1451503 39
-0 -0 -0 0
-0.069710262 -8.633379 -1.2169162 33
-0.91134828 -7.6957712 -1.1540294 67
-0.59413153 -7.2816114 -1.1579108 50
-0.31416565 -6.9677753 -1.1741995 73
-0.055417936 -6.5925546 -1.1768475 95
-0.73166245 -6.1435437 -1.1558462 88
-0.47866607 -5.8275771 -1.1488713 43
-0.25970677 -5.7399125 -1.1864439 33
-0.046476401 -5.56352 -1.2063739 26
-0.63118166 -5.2584109 -1.1936376 33
-0.42084491 -5.0833893 -1.1998528 42
-0.225651 -4.9661131 -1.2210529 22
-0.038848661 -4.7094712 -1.2076508 20
-0.53911978 -4.4572473 -1.1909344 63
-0.36877105 -4.4290042 -1.2247567 28
-0.19646266 -4.2874317 -1.2274492 57
-0.033328656 -4.1636424 -1.2382691 62
-2.08742 -16.399887 4.9661889 29
-3.3486893 -37.486229 10.877874 40
-1.9414825 -37.486958 10.44386 32
-0.53970891 -37.265297 9.9904366 56
-2.1972084 -17.293772 4.523037 51
-1.753653 -19.580786 4.8891888 56
-1.9528629 -37.390827 8.9343958 55
-0.58467966 -37.312099 8.5247288 45
-2.2087135 -17.377048 3.854856 66
-1.9031075 -21.187119 4.4603167 57
-1.980194 -37.326252 7.4656172 43
-0.6138919 -37.345631 7.0919228 75
-2.2238302 -17.476469 3.2019401 62
-1.911891 -21.226694 3.6564343 44
-1.4188908 -26.59663 4.3105006 22
-0.64271736 -37.278 5.6752191 61
-2.2254272 -17.501217 2.5466716 84
-1.9241728 -21.27577 2.8735318 62
-1.4438485 -26.731176 3.3424637 19
-0.33208951 -18.804398 2.1690972 93
-2.2297878 -17.501335 1.8923243 85
-1.9444014 -21.378811 2.0946498 50
-2.0399253 -37.499489 3.3041248 19
-0.34142637 -18.66868 1.4626169 86
-2.2504139 -17.604404 1.2553564 85
-1.9479786 -21.360279 1.3118721 74
-1.5207456 -27.830145 1.4431323 26
-0.34768504 -18.44735 0.77750409 135
-2.2596984 -17.635431 0.60782909 120
-1.9463216 -21.231483 0.52627468 72
-1.5506059 -28.061947 0.42727625 36
-0.72074878 -37.274399 0.21733046 34
-2.2595065 -17.568258 -0.036479697 57
-1.9547439 -21.241791 -0.24945615 49
-1.1801677 -21.494169 -0.48474661 43
-0.30860567 -15.732623 -0.48104247 188
-2.0555704 -15.905799 -0.61864364 119
-1.4561752 -15.745645 -0.75816184 208
-0.82659101 -14.707518 -0.84601498 183
-0.26941743 -13.553852 -0.90945476 134
-1.5256727 -11.77317 -0.89096421 233
-1.0230441 -10.993137 -0.9331243 293
-0.60694349 -10.762452 -1.0125142 85
-0.21585795 -10.653506 -1.1066099 140
-1.3220804 -10.164523 -1.1459337 78
-0.89200163 -9.538105 -1.1624974 23
-0 -0 -0 7
-0.16936441 -8.3229904 -1.1733702 42
-0.99339581 -7.5898581 -1.1398894 68
-0.67679095 -7.2029715 -1.1466402 42
-0.39557907 -6.8925109 -1.1622466 62
-0.13582604 -6.5677562 -1.1726301 78
-0.80392092 -6.1107125 -1.1514388 102
-0.56011409 -5.9267683 -1.1696934 57
-0.33215043 -5.7714915 -1.193724 31
-0.11256904 -5.4570055 -1.1834881 26
-0.68951225 -5.2038493 -1.183084 28
-0.47434181 -4.9848127 -1.1778708 38
-0.28791943 -4.986238 -1.2267776 20
-0.098784819 -4.8132329 -1.2344764 29
-0.59837836 -4.4847865 -1.2001644 48
-0.41318205 -4.3204999 -1.196064 31
-0.24571365 -4.227108 -1.2109512 54
-0.084886849 -4.1859193 -1.2451103 59
-2.2980602 -16.44133 4.9869027 19
-3.8142834 -37.499653 10.894534 29
-2.4057965 -37.529533 10.46316 20
-0.99821103 -37.302216 10.002865 52
-2.2968943 -16.46023 4.312079 124
-1.9749106 -19.372427 4.8428507 83
-2.4153178 -37.422287 8.9483223 55
-1.0448003 -37.383972 8.5434361 55
-2.3083701 -16.536142 3.6743209 131
-2.0208552 -19.771805 4.1672716 62
-1.5953128 -24.405855 4.8849587 41
-1.0731492 -37.37064 7.0986385 60
-1.5639627 -11.192124 2.0539196 121
-2.026371 -19.777996 3.4109135 64
-1.6264106 -24.768692 4.01718 37
-1.1022278 -37.338459 5.6860542 72
-2.3217554 -16.625671 2.4232314 159
-2.0476515 -19.91371 2.6927614 65
-1.6362199 -24.667839 3.0867426 34
-1.1186309 -37.363472 4.3111548 47
-2.3204055 -16.586416 1.7963428 150
-2.0445557 -19.785177 1.9408213 63
-1.6620345 -24.912174 2.1966734 29
-0.57890123 -18.938114 1.4841709 53
-2.3348682 -16.638998 1.188468 138
-2.0680346 -19.964672 1.2276251 79
-1.6611826 -24.80814 1.2873863 32
-0.57403618 -18.441694 0.77750409 202
-2.3423328 -16.656282 0.57502884 147
-2.0751033 -19.941216 0.49488622 57
-1.6715796 -24.736723 0.37692979 27
-0.64950502 -20.543386 0.11981681 32
-2.3307312 -16.517334 -0.034354307 139
-2.0333347 -19.473797 -0.22896925 43
-1.3786671 -20.508503 -0.46286413 33
-0.50202829 -15.73964 -0.48140916 204
-2.334739 -16.472998 -0.64177054 127
-1.6592903 -15.821957 -0.76275939 184
-1.0020987 -14.624553 -0.8418867 196
-0.43610859 -13.561492 -0.910258 126
-1.6717161 -11.765409 -0.89186227 322
-1.1553617 -10.955973 -0.93110305 302
-0.74306476 -10.813789 -1.0181252 40
-0.34851769 -10.709703 -1.1128078 136
-1.4248337 -9.9940529 -1.1286016 80
-1.0027082 -9.4672079 -1.1552694 25
-0 -0 -0 9
-0.27420014 -8.4034185 -1.1850941 42
-1.0830909 -7.5535979 -1.1363543 73
-0.77014536 -7.2412663 -1.1541539 77
-0.47683915 -6.8399181 -1.154278 58
-0.2160231 -6.5537882 -1.1705213 101
-0.87548417 -6.0770359 -1.1470314 85
-0.62779593 -5.8726158 -1.160439 48
-0.39066333 -5.5911279 -1.1573238 31
-0.17991215 -5.4669347 -1.186031 17
-0.75331956 -5.1949959 -1.183084 22
-0.54172331 -5.0366879 -1.1916096 40
-0.34012693 -4.8544531 -1.1952912 14
-0.15212651 -4.6373935 -1.1897671 25
-0.64499384 -4.4197197 -1.184781 48
-0.46244237 -4.2805982 -1.1864997 34
-0.29918987 -4.2467918 -1.2175503 60
-0.13549952 -4.1615705 -1.2382691 54
-2.4788818 -16.275551 4.9454746 21
-4.2859397 -37.553108 10.924522 27
-2.8679225 -37.520237 10.469592 50
-1.4599613 -37.391392 10.030828 52
-2.5091918 -16.499704 4.3301616 156
-2.1092873 -18.444284 4.6169505 55
-2.8815224 -37.482937 8.9706049 64
-1.5015992 -37.321579 8.5327454 54
-1.9735267 -12.972759 2.8877034 130
-2.1255741 -18.543692 3.9136276 80
-1.7852978 -22.976574 4.6029196 33
-1.5360107 -37.460674 7.1187849 55
-2.5080917 -16.471195 3.0281274 186
-2.1366496 -18.600145 3.2120619 67
-1.7929835 -22.987179 3.731528 38
-1.5623271 -37.36953 5.6932769 61
-2.5202425 -16.560703 2.418088 265
-2.1393728 -18.563837 2.5135906 74
-1.8006004 -22.889013 2.8667035 47
-1.5820832 -37.466034 4.3249035 66
-2.5201759 -16.533104 1.7937835 245
-2.1581016 -18.643377 1.8312768 64
-1.8084143 -22.87599 2.0189342 39
-1.60369 -37.419918 2.9339023 67
-2.5298347 -16.549931 1.1842345 264
-2.1762359 -18.759905 1.1550995 96
-1.8196014 -22.946135 1.1918291 44
-0.82474285 -18.996231 0.80124974 126
-2.5338447 -16.543301 0.57215887 251
-2.1766949 -18.686924 0.46438614 104
-1.8345081 -22.956156 0.35011479 36
-1.265265 -28.817747 0.16815391 48
-2.5368931 -16.511209 -0.03440373 211
-2.1649351 -18.529684 -0.21816452 62
-1.5369873 -19.318041 -0.436389 43
-0.69672847 -15.768242 -0.48250914 231
-2.5330558 -16.419405 -0.64084542 138
-1.8477396 -15.752785 -0.76046062 196
-1.1785922 -14.57533 -0.83982253 199
-0.60196447 -13.543158 -0.90945476 143
-1.8159698 -11.744009 -0.89186227 358
-1.2883215 -10.929094 -0.93009245 229
-0.87474549 -10.791949 -1.0170031 85
-0.47777766 -10.656924 -1.1078495 83
-1.5638204 -10.081878 -1.1406008 72
-1.1258098 -9.513341 -1.1624974 26
-0 -0 -0 3
-0.38210142 -8.5062561 -1.2001677 46
-1.1811898 -7.5749202 -1.1416568 57
-0.86174482 -7.2548089 -1.1579108 110
-0.5646106 -6.8807268 -1.1622466 65
-0.29803401 -6.5860476 -1.1768475 98
-0.9554683 -6.1007962 -1.1536424 89
-0.7012099 -5.8761616 -1.1627526 50
-0.45828274 -5.5742011 -1.1548972 29
-0.24857493 -5.4994617 -1.1936597 31
-0.81336951 -5.1622334 -1.1778075 23
-0.59235758 -4.9368768 -1.1696275 56
-0.39967293 -4.8499136 -1.1952912 19
-0.21321218 -4.7280741 -1.213612 21
-0.693735 -4.3771038 -1.1755509 31
-0.52462244 -4.3550014 -1.2088163 53
-0.35033005 -4.2313027 -1.2142508 48
-0.18655819 -4.1595941 -1.2382691 52
-0 -0 0 12
-2.0870683 -16.488155 4.8036356 35
-3.3322277 -37.528282 10.482459 46
-1.9192957 -37.382236 10.033935 54
-2.7246892 -16.547897 4.3512568 166
-2.1904323 -17.273289 4.3302317 54
-1.8131553 -20.319511 4.8679266 62
-1.9656163 -37.417168 8.5594702 45
-2.7115877 -16.46295 3.671742 141
-2.2256458 -17.514235 3.7018473 77
-1.9109062 -21.218351 4.2550712 47
-1.3718474 -25.736984 4.8937216 52
-2.7273138 -16.544024 3.0474403 150
-2.2273083 -17.493135 3.0253849 83
-1.9118344 -21.158382 3.4382079 53
-1.4362344 -26.543972 4.0463758 25
-2.7290704 -16.563684 2.4232314 242
-2.2359569 -17.509838 2.3744133 86
-1.932385 -21.228718 2.6615319 47
-2.040432 -37.419994 4.322154 28
-2.7306428 -16.548019 1.7989024 237
-2.2363572 -17.442705 1.7159055 63
-1.9344758 -21.16168 1.8695912 44
-1.4757127 -26.754251 2.0989244 21
-2.7405527 -16.564878 1.1876214 243
-2.2658834 -17.638826 1.0877019 118
-1.9599396 -21.382601 1.1117843 62
-1.5620397 -28.034599 1.1832023 35
-2.7425492 -16.546457 0.57338887 226
-2.2647111 -17.564203 0.43714333 114
-1.9617264 -21.259214 0.32457674 56
-1.5683008 -27.901485 0.16290748 52
-2.7452238 -16.514347 -0.034477875 223
-2.2536848 -17.43071 -0.20553561 56
-1.6608206 -18.067226 -0.40856314 57
-0.89017659 -15.758505 -0.48250914 203
-2.7422507 -16.434395 -0.64269561 116
-2.0378268 -15.705151 -0.75931126 136
-1.3518049 -14.500127 -0.83638227 164
-0.76472253 -13.474981 -0.9054386 122
-1.9481084 -11.650024 -0.88647383 192
-1.4223413 -10.912462 -0.93009245 272
-1.0071135 -10.780402 -1.0170031 55
-0.61464626 -10.757505 -1.1190054 91
-1.6834779 -10.038405 -1.1379343 94
-1.231653 -9.4161253 -1.1523782 14
-0 -0 -0 5
-0.47966895 -8.3822956 -1.1834192 34
-1.2701118 -7.5364466 -1.1381218 54
-0.94299603 -7.1849313 -1.1485186 116
-0.64678037 -6.8497181 -1.1582624 70
-0.37679607 -6.5465126 -1.1705213 90
-1.0282946 -6.0769815 -1.1514388 85
-0.76865095 -5.8320928 -1.155812 57
-0.54657114 -5.7787542 -1.1985773 25
-0.32142919 -5.5896621 -1.2140025 29
-0.85112786 -5.0018368 -1.1435087 31
-0.65442991 -4.9408159 -1.1723753 32
-0.45366091 -4.7866359 -1.1809793 14
-0.26921856 -4.6902871 -1.2046702 22
-0.75522107 -4.4139924 -1.1878577 41
-0.58564782 -4.4055748 -1.2247567 46
-0.40878633 -4.2955985 -1.2340484 71
-0.23627611 -4.1340246 -1.2314278 56
-2.2427874 -12.634037 3.8545358 71
-2.2749548 -16.358538 4.7736478 26
-3.8006527 -37.565079 10.504974 32
-2.3823066 -37.425274 10.052577 42
-2.2969611 -12.956289 3.4140015 77
-2.301017 -16.518473 4.1477737 133
-2.0021896 -19.703493 4.7258782 58
-2.4284198 -37.448601 8.5728331 58
-2.0518694 -11.570294 2.5859516 81
-2.3105311 -16.555054 3.5048423 192
-2.0284333 -19.800253 3.9753821 59
-1.6281376 -24.812378 4.7213578 38
-2.9425082 -16.579058 3.0603151 189
-2.3157055 -16.562565 2.8691442 127
-2.0490527 -19.943159 3.2445776 59
-1.6478508 -24.807947 3.7845328 28
-2.9424992 -16.58742 2.4318035 272
-2.3202233 -16.55064 2.2480338 158
-2.0482123 -19.805771 2.4860954 56
-1.6670263 -24.938665 2.8826582 34
-2.9439416 -16.572004 1.8053013 219
-2.3304231 -16.56242 1.6319991 126
-2.0557849 -19.804674 1.7517997 61
-1.663776 -24.657228 1.9358649 32
-2.9520173 -16.577139 1.1910081 246
-2.3417389 -16.61342 1.0261649 176
-2.0671601 -19.866989 1.0342215 67
-1.6967925 -24.939161 1.0533587 38
-2.9538171 -16.558781 0.57502884 259
-2.3473616 -16.596716 0.41375005 172
-2.0913126 -19.980532 0.30542317 52
-1.7038358 -24.863266 0.14527948 27
-2.9645765 -16.573915 -0.034675583 201
-2.3360231 -16.475073 -0.19459054 121
-1.7977684 -17.234095 -0.39019266 30
-1.0876075 -15.806225 -0.48434252 216
-2.9458377 -16.411308 -0.64315808 90
-2.2033901 -15.489093 -0.75011617 202
-1.5283836 -14.470532 -0.83569425 148
-0.92507344 -13.392915 -0.90061927 113
-2.0760975 -11.5428 -0.88018733 225
-1.5679828 -10.977046 -0.93716663 307
-1.1443584 -10.814755 -1.0214919 121
-0.74082184 -10.665804 -1.1103287 52
-1.7853715 -9.8996267 -1.1246017 87
-0 -0 -0 10
-0 -0 -0 10
-0.57755017 -8.3046551 -1.1733702 52
-1.360384 -7.5086141 -1.1363543 29
-1.0344681 -7.1962814 -1.1522756 104
-0.72827446 -6.8177323 -1.154278 80
-0.45627996 -6.5296111 -1.1684126 79
-1.102791 -6.0639052 -1.1514388 67
-0.84520698 -5.857183 -1.1627526 42
-0.60994363 -5.7014999 -1.1840173 21
-0.3842805 -5.5034041 -1.1962025 19
-0.91665447 -5.0140467 -1.1487855 36
-0.7250669 -5.0017753 -1.1888618 25
-0.52478462 -4.8965807 -1.2096032 31
-0.32837224 -4.7098217 -1.2106314 28
-0.81561941 -4.4386158 -1.1970878 50
-0.63966686 -4.398056 -1.2247567 80
-0.45653364 -4.2443733 -1.22085 79
-0.27901724 -4.0160694 -1.1972215 59
-2.273104 -11.950728 3.6543002 63
-1.8050964 -11.907004 3.4808309 18
-1.968825 -17.332937 4.8535013 75
-2.8457839 -37.451008 10.068112 27
-3.1429815 -16.544516 4.3693395 151
-2.508795 -16.523531 4.1564622 179
-2.1182003 -18.575712 4.4612794 58
-1.6553736 -21.448044 4.9142237 58
-3.1497977 -16.575663 3.713007 123
-2.5135131 -16.525454 3.5048423 243
-2.1222076 -18.4762 3.7144957 79
-1.7849865 -22.898182 4.36096 54
-2.0913987 -10.997514 2.0346069 97
-2.5152166 -16.509516 2.8650861 214
-2.1418447 -18.598486 3.0298595 82
-1.8021892 -22.881754 3.4937968 44
-3.1502666 -16.573397 2.4352324 254
-2.5231504 -16.520922 2.2480338 240
-2.1513507 -18.572643 2.3344467 65
-1.7960309 -22.682178 2.6241813 42
-3.1515458 -16.558073 1.8078609 221
-2.5316849 -16.520769 1.6308339 203
-2.1620412 -18.60244 1.6476803 71
-1.8196518 -22.798439 1.7915478 36
-3.1686804 -16.610214 1.1960883 256
-2.5381663 -16.536077 1.0232347 255
-2.1596842 -18.542646 0.96658683 71
-1.8288436 -22.753365 0.96191239 57
-3.1725526 -16.603746 0.57789892 275
-2.5472007 -16.542948 0.41315782 231
-2.189831 -18.702057 0.28626961 65
-1.854058 -22.926765 0.1340871 50
-3.1745141 -16.571646 -0.034749728 232
-2.5453424 -16.492601 -0.19515182 216
-2.1231868 -18.187851 -0.41234526 57
-1.2824625 -15.803643 -0.4847092 223
-3.1537976 -16.409248 -0.64454567 107
-2.3712959 -15.318746 -0.74321991 184
-1.7002263 -14.403096 -0.83294201 145
-1.090327 -13.392488 -0.9014225 150
-2.2289023 -11.575206 -0.88467765 259
-1.7117499 -11.016056 -0.94221967 255
-1.2713745 -10.752439 -1.0170031 80
-0.88527524 -10.822454 -1.1276823 247
-1.8976787 -9.8301344 -1.1192687 98
-0 -0 -0 7
-0 -0 -0 7
-0.68232697 -8.3324709 -1.1783948 76
-1.4614602 -7.5379634 -1.1434243 48
-1.1098878 -7.1010756 -1.1391263 97
-0.81468606 -6.8317823 -1.1582624 66
-0.53637397 -6.5235205 -1.1684126 108
-1.1771214 -6.0499158 -1.1514388 66
-0.91337079 -5.8231053 -1.1581256 53
-0.66453642 -5.5652242 -1.1573238 27
-0.44218281 -5.381393 -1.1707739 29
-0.98260826 -5.0253978 -1.1540622 65
-0.79002678 -5.0155783 -1.1943573 28
-0.58344972 -4.878201 -1.2067407 22
-0.38519359 -4.6938529 -1.2076508 49
-0.86779052 -4.4168911 -1.194011 39
-0.67734069 -4.2870326 -1.196064 56
-0.50446063 -4.2040854 -1.2109512 77
-0.33953488 -4.149909 -1.2382691 58
-2.6253142 -12.935608 3.9650104 36
-2.0127103 -12.259358 3.5907869 27
-2.1683676 -17.204241 4.8245525 71
-3.3153508 -37.528725 10.099182 49
-3.3457716 -16.5047 4.3693395 175
-2.7189324 -16.537464 4.1680465 192
-2.2185693 -17.540855 4.2189622 57
-1.8871504 -21.076553 4.8340497 63
-3.3576274 -16.558733 3.7181652 180
-2.7199335 -16.516541 3.5097673 127
-2.2224543 -17.456533 3.5147183 85
-1.9195119 -21.254215 4.0520477 65
-3.3602321 -16.559706 3.0710444 124
-2.7253232 -16.524086 2.8732026 193
-2.2364557 -17.525002 2.8592353 104
-1.9321314 -21.203897 3.2409828 48
-3.3604932 -16.568411 2.440376 217
-2.7392752 -16.57085 2.259232 227
-2.2427363 -17.481876 2.2006392 75
-1.9481781 -21.281355 2.4646957 47
-3.3782473 -16.635078 1.8206582 234
-2.7518141 -16.5945 1.6413221 197
-2.2543776 -17.519318 1.554078 79
-1.9620246 -21.285286 1.6744072 45
-3.377049 -16.593538 1.1977817 242
-2.75071 -16.562763 1.0268975 256
-2.2583482 -17.516361 0.91446471 101
-1.9673164 -21.213064 0.89774841 58
-3.3928337 -16.645823 0.58076894 271
-2.7618423 -16.581444 0.41493452 267
-2.2727242 -17.543356 0.26894021 97
-1.9871091 -21.313204 0.12478343 61
-3.3920476 -16.601984 -0.034898013 242
-2.7633448 -16.554806 -0.19627438 230
-2.230933 -17.26807 -0.39208373 66
-1.4774177 -15.798658 -0.48507586 193
-3.3549268 -16.36931 -0.64454567 121
-2.5670173 -15.335779 -0.74551862 174
-1.8799472 -14.404906 -0.8343181 173
-1.2512376 -13.342338 -0.8990128 118
-2.3731868 -11.558703 -0.88557571 261
-1.8289775 -10.888092 -0.9331243 311
-1.4109695 -10.795261 -1.0226141 121
-1.0146598 -10.775126 -1.1239637 254
-2.0013387 -9.7243404 -1.1099359 52
-1.8188084 -10.79756 -1.3287406 39
-0 -0 -0 8
-0.78118271 -8.2879801 -1.1733702 72
-1.5274314 -7.3916025 -1.1239818 29
-1.2087883 -7.1570401 -1.1503971 82
-0.89228004 -6.7743416 -1.1502938 70
-0.61527479 -6.5046864 -1.1663038 108
-1.2321162 -5.9426126 -1.1338091 73
-0.97295707 -5.7418017 -1.1442443 34
-0.74046278 -5.6149068 -1.1694573 30
-0.50708377 -5.3638864 -1.1682311 18
-1.0561397 -5.0702634 -1.1672539 45
-0.82996708 -4.8788328 -1.164132 41
-0.62343293 -4.7204814 -1.1695297 17
-0.45260054 -4.7929244 -1.2344764 30
-0.92430282 -4.4172626 -1.1970878 39
-0.72795266 -4.2669935 -1.1928759 45
-0.5544982 -4.186141 -1.2076516 69
-0.38288522 -4.0652695 -1.2143247 52
-2.6505415 -12.284539 3.7751319 67
-2.1429288 -12.120216 3.5574667 65
-2.2920802 -16.546503 4.6476421 96
-3.7872522 -37.600536 10.130253 29
-3.57253 -16.575947 4.3994765 88
-2.9277582 -16.537254 4.1767354 172
-2.2906649 -16.483366 3.9710751 124
-2.0163536 -19.78323 4.5427504 55
-3.5778639 -16.596478 3.7362187 225
-2.2908716 -12.920136 2.7512982 77
-2.3159361 -16.565531 3.3407938 143
-2.033251 -19.798285 3.7789516 53
-3.5806201 -16.598011 3.0860653 71
-2.9423678 -16.570913 2.8874061 68
-2.3214986 -16.569466 2.7077823 193
-2.0480597 -19.786156 3.0278969 62
-3.5785809 -16.595585 2.4506624 261
-2.9465857 -16.559404 2.2624314 258
-2.3342559 -16.580484 2.0906196 152
-2.0526783 -19.749992 2.2900863 61
-3.5947204 -16.650684 1.8270569 237
-2.9531484 -16.547722 1.6401566 228
-2.3388581 -16.567091 1.4720446 146
-2.0725315 -19.819889 1.561015 60
-3.5981393 -16.632742 1.2037084 256
-2.9642892 -16.586716 1.0305604 247
-2.3472717 -16.597387 0.86792696 154
-2.0870855 -19.851875 0.8411628 80
-3.6019266 -16.626377 0.58158892 265
-2.9756944 -16.605345 0.4164151 278
-2.3545299 -16.575674 0.25452945 130
-2.101028 -19.891006 0.11659899 82
-3.6031625 -16.594288 -0.03497215 234
-2.9747725 -16.566891 -0.19683567 234
-2.3383214 -16.502939 -0.37533417 110
-1.6737069 -15.803194 -0.48580921 241
-3.5504477 -16.303474 -0.64362061 92
-2.7613888 -15.338513 -0.74724269 192
-2.0514879 -14.345173 -0.83225393 137
-1.4060255 -13.242635 -0.89339024 139
-2.4893477 -11.411797 -0.87659502 228
-1.9773312 -10.947196 -0.94019848 382
-1.5501124 -10.824441 -1.0271029 69
-1.145546 -10.749994 -1.1227242 249
-2.1230679 -9.7106991 -1.1112692 44
-1.9596651 -10.821315 -1.3345228 62
-1.2466819 -8.6678486 -1.1482224 16
-0.87778956 -8.2305069 -1.1666708 68
-1.6434666 -7.4882336 -1.1416568 46
-1.2774715 -7.0367146 -1.1334909 74
-0.97196609 -6.7394571 -1.1463095 72
-0.69253761 -6.4731541 -1.1620864 97
-1.3277755 -6.030725 -1.1536424 56
-1.0517827 -5.7757673 -1.1534984 38
-0.81266922 -5.6286602 -1.1743106 38
-0.57660955 -5.3922424 -1.1758596 21
-1.1157525 -5.0454912 -1.1646156 30
-0.90237641 -4.9372253 -1.1806185 29
-0.67797852 -4.6894078 -1.1638048 20
-0.49903575 -4.6714277 -1.2046702 26
-0.97843981 -4.4055872 -1.1970878 33
-0.77817506 -4.2463598 -1.1896877 60
-0.60417157 -4.167603 -1.204352 73
-0.43274352 -4.0602651 -1.2143247 37
-0 -0 0 11
-2.2550147 -11.900455 3.500823 100
-2.4949586 -16.517128 4.6476421 146
-2.0280397 -17.925734 4.8358526 105
-2.4721413 -10.823664 2.8805795 103
-2.2622051 -11.923611 3.0182741 98
-1.7217281 -11.364608 2.7427781 174
-2.1327233 -18.652821 4.288866 66
-3.7916996 -16.597023 3.7465351 114
-2.2892175 -12.048762 2.5715311 88
-2.5190463 -16.535864 3.3407938 154
-2.1331398 -18.530367 3.5416708 75
-3.7971892 -16.610369 3.0967944 83
-3.1521285 -16.568415 2.8934937 159
-2.5210817 -16.51631 2.703948 260
-2.1527297 -18.569305 2.8455098 74
-3.7872565 -16.573578 2.4540913 230
-3.1629355 -16.592094 2.2720299 259
-2.5321345 -16.515282 2.0861595 228
-2.1488442 -18.468161 2.1443493 74
-3.8147442 -16.675104 1.8347355 239
-3.1672044 -16.568893 1.6459836 207
-2.5456181 -16.560772 1.474148 202
-2.1640728 -18.497791 1.4588685 68
-3.8180234 -16.657339 1.2087885 276
-3.178869 -16.60791 1.0342233 247
-2.5471234 -16.543646 0.86668605 232
-2.1849627 -18.586405 0.7886191 97
-3.8217838 -16.651056 0.58404893 239
-3.1769829 -16.555798 0.41611901 252
-2.5559285 -16.533674 0.25434703 193
-2.1916177 -18.564768 0.10897418 89
-3.8172886 -16.5956 -0.035071008 231
-3.1801155 -16.540922 -0.19697601 239
-2.5534625 -16.555998 -0.37722525 190
-1.8759675 -15.852932 -0.48800924 238
-3.7637248 -16.317101 -0.64593333 91
-2.9584813 -15.350551 -0.74954152 122
-2.2273707 -14.318918 -0.83225393 140
-1.5712473 -13.248162 -0.89499664 112
-2.6103454 -11.298775 -0.87030852 211
-2.1183302 -10.957327 -0.94323033 394
-1.6865056 -10.828214 -1.0293474 167
-1.2844301 -10.794389 -1.128922 237
-2.2582128 -9.7536249 -1.1192687 27
-2.1149764 -10.913403 -1.3489789 37
-1.3345734 -8.5343447 -1.1326215 16
-0.9745093 -8.1837177 -1.1616461 66
-1.6895651 -7.2709637 -1.1116093 55
-1.3546866 -6.9739695 -1.1259772 68
-1.0545964 -6.7270222 -1.1463095 93
-0.77332175 -6.4758978 -1.1641952 75
-1.3775842 -5.9105854 -1.1338091 45
-1.1158265 -5.7277527 -1.1465578 51
-0.87985837 -5.6066537 -1.1718838 27
-0.65663677 -5.5012088 -1.2012882 25
-1.1855875 -5.0656137 -1.1725307 35
-0.96289587 -4.9257798 -1.1806185 24
-0.74632722 -4.7498093 -1.1809793 23
-0.55770028 -4.6764941 -1.2076508 31
-1.0271226 -4.3706665 -1.1909344 32
-0.84579957 -4.3159604 -1.2120044 63
-0.65526897 -4.1598749 -1.204352 56
-0.49069217 -4.123178 -1.2348485 55
-2.9080389 -12.037051 3.7198944 63
-2.5676942 -12.696741 3.7440588 24
-2.701195 -16.508087 4.6540756 143
-2.1872046 -17.416477 4.7053566 51
-4.0082245 -16.607483 4.4326267 74
-3.35583 -16.57456 4.2056966 86
-1.9612234 -11.953094 2.8903966 125
-2.2187293 -17.499491 4.0296369 54
-4.0115862 -16.617598 3.7620096 127
-3.3656905 -16.600914 3.551631 217
-2.721777 -16.503706 3.3407938 194
-2.233567 -17.508755 3.3513992 86
-4.011827 -16.608427 3.1053777 92
-3.3528581 -16.516893 2.8914645 114
-2.7370896 -16.565939 2.7173679 155
-2.2263532 -17.34128 2.6613171 90
-4.0210195 -16.652849 2.4729502 264
-3.3710485 -16.57534 2.2752295 209
-2.7482541 -16.565193 2.0965667 226
-2.247386 -17.447243 2.0288596 87
-4.016283 -16.615438 1.8334558 251
-3.3822224 -16.58729 1.6518104 214
-2.7564962 -16.575453 1.4783548 207
-2.2665038 -17.508829 1.3829615 77
-4.0390511 -16.679035 1.2138686 234
-3.3896224 -16.602858 1.0364212 224
-2.7558539 -16.546604 0.8685475 235
-2.2675757 -17.440598 0.74112761 100
-4.0399609 -16.66118 0.58609897 253
-3.3991504 -16.609587 0.41848797 263
-2.7665434 -16.548401 0.25507668 189
-2.2763975 -17.441778 0.10253856 119
-4.0404878 -16.629131 -0.035244003 220
-3.4021373 -16.594688 -0.19809856 236
-2.7584121 -16.535252 -0.37749544 181
-2.1014779 -16.06658 -0.49534264 152
-3.9693542 -16.292986 -0.64685845 86
-3.1586964 -15.371794 -0.75241494 128
-2.3949718 -14.243249 -0.82950181 137
-1.7228129 -13.144783 -0.88937408 130
-2.7176006 -11.138013 -0.8604297 255
-2.2526338 -10.930507 -0.94323033 348
-1.8212407 -10.818483 -1.0304695 145
-1.4183528 -10.789648 -1.1301615 201
-2.3550763 -9.6325026 -1.1086026 19
-0 -0 -0 22
-1.4669555 -8.6815701 -1.1544627 26
-1.0872606 -8.2653923 -1.175045 67
-1.7956325 -7.3188457 -1.1222143 57
-1.4401659 -6.9568205 -1.1259772 74
-1.1311398 -6.6785727 -1.1403331 132
-0.83728701 -6.3488016 -1.1431078 62
-1.4584674 -5.9275985 -1.1404203 41
-1.2027831 -5.794332 -1.1627526 26
-0.95252299 -5.618608 -1.1767373 22
-0.71643186 -5.4346023 -1.1885738 22
-1.2336241 -4.9938598 -1.1593388 36
-1.0185072 -4.8907218 -1.1751231 34
-0.81625879 -4.8092289 -1.1981536 21
-0.61504602 -4.6692982 -1.2076508 26
-1.0723044 -4.3239589 -1.1817043 53
-0.89397138 -4.2826066 -1.2056282 68
-0.69659281 -4.0946503 -1.1878541 66
-0.54575086 -4.1510577 -1.2451103 51
-2.7124059 -10.652843 3.3021617 106
-2.6215186 -12.190915 3.604115 46
-1.8319774 -10.393904 2.9364395 167
-2.2882125 -16.573114 4.4847569 120
-2.8572896 -11.232525 3.0071542 87
-3.5663249 -16.566282 4.214385 104
-1.929023 -10.916635 2.6452942 105
-1.778114 -12.766709 2.9446146 64
-3.2066786 -12.603275 2.8619127 68
-3.5765796 -16.592804 3.5590186 184
-2.938498 -16.550167 3.3572462 141
-2.3158021 -16.534319 3.1700811 173
-4.2473769 -16.683804 3.1289818 184
-3.5902228 -16.636362 2.919872 118
-2.9484706 -16.577755 2.7250364 251
-2.3330727 -16.560823 2.5457451 176
-4.2426476 -16.671312 2.483237 258
-3.5917907 -16.614094 2.2864275 226
-2.9596992 -16.57711 2.1025136 211
-2.3479016 -16.615696 1.9353681 154
-4.2434411 -16.6574 1.8436936 222
-3.6032267 -16.626242 1.6599679 205
-2.9681172 -16.587446 1.4825617 204
-2.3483698 -16.543972 1.3089286 144
-4.264143 -16.709402 1.2197955 233
-3.6108878 -16.641947 1.0415492 231
-2.9734948 -16.594112 0.87289101 244
-2.3596332 -16.55686 0.70475119 171
-4.261929 -16.680069 0.58855903 247
-3.6205642 -16.64868 0.42056078 245
-2.9842741 -16.595869 0.25635359 208
-2.3781381 -16.628521 0.097921707 155
-4.2710338 -16.682922 -0.035466429 220
-3.6208472 -16.622036 -0.19894049 240
-2.9632363 -16.511963 -0.37776557 218
-2.3597326 -16.467014 -0.50854284 192
-4.1719761 -16.254662 -0.64732093 88
-3.3317552 -15.261612 -0.74896681 144
-2.5738411 -14.236365 -0.8308779 135
-1.8959002 -13.205612 -0.89499664 156
-2.8451397 -11.069056 -0.85773546 247
-2.3891554 -10.913721 -0.94424093 319
-1.9666299 -10.865858 -1.0372028 156
-1.5438486 -10.724174 -1.1252033 180
-2.4671559 -9.5797796 -1.1059362 20
-0 -0 -0 16
-1.5712551 -8.6512079 -1.1529026 33
-1.1801369 -8.1926212 -1.1666708 64
-1.8764026 -7.2617846 -1.1169118 98
-1.5305182 -6.9617748 -1.129734 70
-1.21513 -6.6758308 -1.1423253 113
-0.91344541 -6.3263569 -1.1409991 79
-1.5310982 -5.9092541 -1.1404203 39
-1.2560565 -5.6986437 -1.1465578 48
-1.0171876 -5.5833721 -1.1718838 20
-0.77301699 -5.3557582 -1.1733167 31
-1.2918669 -4.9670157 -1.1567005 28
-1.0708821 -4.843637 -1.1668798 25
-0.8522141 -4.6727405 -1.1666672 25
-0.66068399 -4.5808649 -1.1867864 39
-1.1282151 -4.3216972 -1.184781 59
-0.94645822 -4.2713137 -1.2056282 67
-0.75716007 -4.1425409 -1.204352 67
-0.59337139 -4.1212788 -1.2382691 40
-2.9023728 -10.84079 3.3712084 204
-2.7965395 -12.270226 3.637435 69
-3.1205342 -16.516342 4.6765914 72
-2.4896917 -16.532324 4.4816499 196
-3.0399358 -11.364929 3.0523593 109
-2.5493085 -11.173761 2.8502972 157
-2.0954216 -11.064167 2.6870732 104
-2.5017848 -16.479782 3.807822 105
-3.2035944 -11.974262 2.7278006 68
-3.800853 -16.639261 3.5787191 202
-3.1611655 -16.616903 3.3783991 131
-1.716465 -11.248495 2.1605201 125
-4.4334745 -16.561995 3.1161067 81
-2.5680745 -11.229801 1.9763414 56
-3.1672039 -16.62178 2.7384562 182
-2.5397215 -16.554398 2.5493565 251
-4.465332 -16.686832 2.4935238 225
-3.8193004 -16.6731 2.3008254 217
-3.183032 -16.644802 2.1158943 233
-2.5443742 -16.538504 1.9298685 231
-4.4691439 -16.68475 1.8526521 214
-3.8176756 -16.627335 1.6646295 194
-3.1759467 -16.573254 1.4846652 193
-2.551213 -16.513908 1.3089286 183
-4.478178 -16.690502 1.2223356 239
-3.8389871 -16.701443 1.0481424 265
-3.1859396 -16.603451 0.87537307 269
-2.564471 -16.538506 0.70525646 259
-4.4849658 -16.696005 0.59101897 271
-3.8380609 -16.661446 0.42204136 243
-3.199048 -16.616911 0.25726569 204
-2.5691049 -16.515085 0.09743204 227
-4.4816747 -16.65243 -0.035515856 215
-3.8380404 -16.634809 -0.19964209 236
-3.174696 -16.521482 -0.37884617 209
-2.5782535 -16.543478 -0.51184291 218
-4.383625 -16.24855 -0.64917111 96
-3.4998877 -15.13783 -0.74494392 155
-2.7460735 -14.191946 -0.83018982 176
-2.033802 -13.027565 -0.88455468 131
-2.9870017 -11.056413 -0.85953164 283
-2.525604 -10.895229 -0.94525152 219
-2.0975506 -10.829177 -1.0360806 137
-1.6753346 -10.704421 -1.1252033 219
-2.6001077 -9.6063404 -1.1126025 25
-0 -0 -0 10
-1.6682217 -8.5845566 -1.1466624 38
-1.2769073 -8.1540432 -1.163321 67
-1.9591542 -7.2153029 -1.1133769 91
-1.6158346 -6.9424691 -1.129734 78
-1.2969612 -6.6604171 -1.1423253 116
-1.002 -6.3846941 -1.1536515 72
-1.5973015 -5.8672566 -1.1360128 38
-1.325893 -5.6828012 -1.1465578 51
-1.0811315 -5.5473995 -1.1670306 26
-0.8332293 -5.3111115 -1.1656883 28
-1.3465517 -4.9282041 -1.1514238 34
-1.1408862 -4.8756266 -1.1778708 25
-0.92288023 -4.7305584 -1.1838416 37
-0.72404999 -4.6183467 -1.1987089 28
-1.1965005 -4.3634567 -1.2001644 60
-0.98031431 -4.1805348 -1.1833116 63
-0.8079384 -4.1329374 -1.204352 72
-0.65101606 -4.159142 -1.2519516 40
-3.2714131 -11.645249 3.6335862 76
-2.841625 -11.797888 3.5074871 31
-2.1025035 -10.425142 2.9589553 63
-2.6923811 -16.500526 4.4816499 166
-3.0598946 -10.901806 2.9378395 143
-4.001832 -16.598303 4.246243 109
-2.2611012 -11.186352 2.7232814 76
-2.7209074 -16.551733 3.8318741 123
-4.6711974 -16.639215 3.8032746 146
-4.0212908 -16.659868 3.5934947 130
-3.3648424 -16.57686 3.3783991 75
-1.8620571 -11.27311 2.1694739 118
-3.3305538 -11.857363 2.2384613 109
-4.0224195 -16.646709 2.9381337 123
-2.4482141 -12.042769 1.9888595 131
-2.7387929 -16.498581 2.5457451 238
-4.6633472 -16.60791 2.4900949 151
-4.0292125 -16.648094 2.3040247 236
-3.3894296 -16.616154 2.1173811 218
-2.7549639 -16.553072 1.9353681 226
-4.7026095 -16.732029 1.8641698 203
-4.0383229 -16.648874 1.6716217 193
-3.3958426 -16.615013 1.492027 227
-2.7615576 -16.528557 1.312677 209
-4.7086072 -16.726467 1.2291089 233
-4.0408244 -16.641436 1.0474099 257
-3.4014623 -16.621807 0.87847555 236
-2.7771425 -16.564911 0.70778257 266
-4.7155395 -16.732058 0.59429902 253
-4.0564141 -16.671373 0.42352194 231
-3.4123728 -16.623415 0.25799531 201
-2.7914758 -16.600653 0.098131567 270
-4.7085118 -16.677017 -0.035688851 216
-4.0532498 -16.633091 -0.20020337 208
-3.3964672 -16.575304 -0.38100743 213
-2.785058 -16.534248 -0.51257622 222
-4.5826898 -16.193533 -0.64917111 75
-3.6882317 -15.105385 -0.74551862 153
-2.9103432 -14.110246 -0.82743764 137
-2.1955092 -13.013433 -0.88535792 140
-3.151818 -11.122542 -0.86761427 232
-2.6704867 -10.909873 -0.94929391 167
-2.2423618 -10.861125 -1.0416918 229
-1.7986073 -10.635981 -1.120245 144
-2.7047694 -9.5278196 -1.1072694 40
-0 -0 -0 5
-1.7637904 -8.5168343 -1.140422 33
-1.3848031 -8.1846237 -1.1700205 51
-2.0605516 -7.2363791 -1.1204468 120
-1.6895949 -6.8760786 -1.1222202 88
-1.3713845 -6.6092391 -1.1363488 95
-1.0704014 -6.3136811 -1.1431078 65
-1.6821334 -5.8925848 -1.1448276 54
-1.3983458 -5.6775351 -1.1488713 64
-0 -0 -0 11
-0.90618074 -5.3467369 -1.1758596 21
-1.4294935 -4.9900842 -1.1698923 46
-1.2258394 -4.9633231 -1.2026006 47
-0.99272001 -4.7759256 -1.1981536 37
-0.7748462 -4.5747318 -1.1897671 42
-1.2339351 -4.2927079 -1.184781 63
-1.0621133 -4.2917204 -1.2183807 57
-0.87270892 -4.1904821 -1.2241496 70
-0.6847437 -4.04877 -1.221166 41
-3.3946092 -11.538074 3.6128721 40
-2.952148 -11.628044 3.4675031 67
-2.2448242 -10.466379 2.9782543 68
-2.9087133 -16.546156 4.5033994 189
-4.9034605 -16.680546 4.5109825 133
-4.2310309 -16.649523 4.2723083 141
-3.5657277 -16.589718 4.0490623 114
